# .PCD v0.7 - Point Cloud Data file format
VERSION 0.7
FIELDS x y z
SIZE 4 4 4
TYPE F F F
COUNT 1 1 1
WIDTH 1445
HEIGHT 1
VIEWPOINT 0 0 0 1 0 0 0
POINTS 1445
DATA ascii
0.50967002 0.29001877 0.24658486
0.017181719 0.31353185 0.24261782
0.037158214 0.31256038 0.24120629
0.062740885 0.31272987 0.24020121
0.087645747 0.31241572 0.24252184
0.11209018 0.31305662 0.24223062
0.13721925 0.31268004 0.24163464
0.16233692 0.31237274 0.24224769
0.18717594 0.31303999 0.24192405
0.21236877 0.31308207 0.24225371
0.23809537 0.3123655 0.24238777
0.26278961 0.3130112 0.24204852
0.28764313 0.312962 0.24238624
0.3125287 0.31232837 0.24266927
0.33743289 0.31324533 0.24234621
0.36242002 0.31330785 0.24263051
0.38741824 0.31231481 0.24292007
0.41233799 0.31305087 0.24270692
0.43689838 0.3130039 0.24256064
0.4617826 0.31227365 0.24163638
0.48778266 0.31302303 0.24303392
0.50982058 0.31285188 0.24451511
0.016496371 0.33742452 0.23992106
0.03684295 0.33769596 0.23368604
0.062310487 0.33658499 0.23407984
0.088318065 0.33720681 0.23455591
0.1126456 0.33661151 0.23456949
0.13831176 0.33629712 0.23643254
0.16279696 0.33699495 0.2374264
0.18693697 0.33747873 0.23732948
0.21189401 0.33684355 0.23731969
0.23733419 0.33699769 0.23774871
0.26268488 0.33754626 0.23735705
0.28798765 0.33715943 0.23773862
0.31255117 0.33712134 0.23772104
0.3370845 0.33760834 0.23750617
0.36257869 0.33714041 0.23737009
0.3870551 0.33653212 0.23728856
0.41250363 0.33681908 0.23451169
0.43725359 0.33754221 0.2339408
0.46183884 0.33674014 0.23416261
0.48857275 0.33772767 0.23603399
0.50911975 0.3377125 0.24043328
0.016776815 0.36221486 0.23970488
0.036600281 0.36196741 0.23404257
0.061991975 0.36139467 0.23448415
0.08821743 0.36135066 0.23524901
0.11283913 0.36232135 0.23521082
0.13769929 0.36327496 0.23644871
0.1626423 0.3639057 0.23706505
0.18674065 0.36273575 0.23715901
0.21157335 0.36267447 0.23670147
0.23676699 0.36283183 0.23699671
0.26294002 0.36242718 0.23696472
0.28831348 0.36243153 0.23695426
0.31347698 0.36325142 0.23688768
0.33746886 0.36349589 0.23713933
0.36196104 0.36301556 0.23714535
0.38794604 0.36357722 0.23719101
0.41290474 0.36258453 0.23617333
0.43750149 0.36193153 0.23493941
0.46218809 0.3617101 0.23508906
0.4888452 0.36109257 0.23660754
0.50923568 0.36162797 0.24023765
0.018175066 0.38638735 0.24168563
0.03690258 0.3871758 0.23858751
0.062463671 0.38798523 0.23933691
0.088005409 0.38720691 0.24018206
0.11253988 0.38724855 0.23958865
0.13716011 0.38740203 0.23973975
0.16213387 0.38747674 0.23986034
0.18677442 0.38764483 0.23997247
0.21228342 0.38748696 0.23990493
0.23755911 0.38709748 0.24015693
0.26239112 0.38724017 0.24014916
0.28748706 0.38702652 0.24018601
0.31293416 0.38743326 0.24039257
0.33737567 0.38766316 0.24054106
0.36217642 0.38763919 0.24040651
0.38764775 0.38681057 0.24047013
0.41241854 0.38757235 0.24031636
0.43759555 0.38714129 0.2402579
0.46253625 0.38722888 0.24012171
0.48831648 0.38756284 0.24108627
0.50891805 0.38624924 0.24220352
0.019492112 0.40861011 0.24546087
0.037560679 0.41014996 0.24455661
0.062482297 0.40993983 0.24492007
0.08784283 0.41001901 0.24520133
0.11269315 0.40982884 0.24505152
0.1372114 0.409661 0.24484248
0.16206826 0.40940458 0.24501513
0.18777315 0.40993366 0.24486645
0.21275109 0.40949127 0.24480546
0.23783158 0.4087787 0.24488449
0.26255745 0.40961561 0.24485995
0.28788278 0.40842366 0.24473259
0.31234053 0.40894872 0.24486209
0.3373532 0.40925664 0.24494316
0.36267641 0.40889794 0.24477637
0.38783047 0.40857482 0.24461491
0.41234142 0.40884054 0.24496117
0.43742102 0.40884215 0.24469444
0.4619903 0.40902397 0.24488084
0.48783556 0.40845495 0.24522793
0.50877637 0.40810069 0.24566011
0.018515438 0.42817724 0.24923083
0.037889667 0.42649674 0.24936302
0.067442514 0.42642337 0.24936382
0.087711461 0.4269338 0.2490585
0.1062375 0.42686576 0.24955381
0.13633248 0.42658108 0.2487933
0.16689564 0.42620289 0.24904643
0.19091916 0.42668489 0.24908835
0.21287584 0.42689437 0.24911126
0.24207559 0.42735371 0.24872419
0.26060951 0.42668185 0.24903743
0.28649968 0.42667553 0.24853085
0.31571454 0.42730469 0.24880818
0.33880052 0.42705303 0.24926549
0.36518249 0.42623261 0.2486766
0.38706186 0.42723817 0.24901578
0.41707018 0.42765915 0.24812225
0.44036451 0.42931607 0.24915388
0.46527618 0.42681986 0.24866545
0.48638892 0.42746812 0.24765605
0.50085789 0.42760399 0.24804211
0.015562513 0.16745445 0.27336228
0.037442535 0.16738462 0.27322477
0.062495545 0.16671301 0.27203742
0.085823633 0.16709636 0.27104935
0.11265797 0.16657396 0.27310923
0.13712709 0.16704398 0.2731038
0.16236384 0.16762868 0.2729719
0.18735871 0.16735211 0.27308506
0.2121332 0.16819279 0.27296588
0.2369739 0.16750039 0.2726883
0.26250824 0.16715844 0.27287883
0.2880801 0.16639657 0.27321309
0.31394926 0.16705833 0.27297333
0.33833641 0.16717435 0.27269703
0.36115041 0.16720828 0.27303579
0.38672811 0.16634436 0.27283162
0.41158578 0.16641673 0.27297771
0.43788841 0.16678056 0.27278519
0.46453658 0.16595748 0.26636478
0.48497796 0.16607346 0.27011177
0.51089102 0.16561326 0.27263403
0.52594566 0.16715059 0.27392364
0.014423643 0.18810402 0.27052841
0.037362695 0.18844378 0.26982662
0.062221028 0.18793136 0.26854986
0.087388709 0.18832147 0.2676563
0.11313967 0.18853296 0.27040702
0.1373426 0.188288 0.27027065
0.16240564 0.18841134 0.27007532
0.18722293 0.18800636 0.27018619
0.21239682 0.1881929 0.27023518
0.23820859 0.18879347 0.26997423
0.26233268 0.18795992 0.27026743
0.28775334 0.18827325 0.27000153
0.31283104 0.18865247 0.27010718
0.33702424 0.18838243 0.27025256
0.36235407 0.18911204 0.27023503
0.38730165 0.18832588 0.27034232
0.41203907 0.18937249 0.27035534
0.43676549 0.18894061 0.26988977
0.46320501 0.18870166 0.26741692
0.48612279 0.18891269 0.26636234
0.5126881 0.18983959 0.27132246
0.52625024 0.18587314 0.2732797
0.013918371 0.21312433 0.26698589
0.037366837 0.21330658 0.2628279
0.061236847 0.2122533 0.26249513
0.087912135 0.21344708 0.26246545
0.11185979 0.21257086 0.26253629
0.13737357 0.21145885 0.26477695
0.16235614 0.21143445 0.26604557
0.18694228 0.21252282 0.26618087
0.21217689 0.21273771 0.26619232
0.2370179 0.21303168 0.26601818
0.26300535 0.21268924 0.26626915
0.28785625 0.21275321 0.26617327
0.31306604 0.21211381 0.26635849
0.33756676 0.21289539 0.26626819
0.3622672 0.21193248 0.26665708
0.38748017 0.21252415 0.26569438
0.41295204 0.21259579 0.26326627
0.43733379 0.21381988 0.26231128
0.46254343 0.21189056 0.26288301
0.48727527 0.21348713 0.26451749
0.51201725 0.2134397 0.26775739
0.52500612 0.20737684 0.27171987
0.01300243 0.23773076 0.26348925
0.036958247 0.23710088 0.25706658
0.060818054 0.23725364 0.25717786
0.088020541 0.2370595 0.25855246
0.11256533 0.23763201 0.25870252
0.1374815 0.23852396 0.26055929
0.16235955 0.23765524 0.26123309
0.18802111 0.23770998 0.2614283
0.21212138 0.23791005 0.26113111
0.23782207 0.23757468 0.26113769
0.26261178 0.23768249 0.26145551
0.28769037 0.23737198 0.26123023
0.31254783 0.23735018 0.26105103
0.33727357 0.23737654 0.26128429
0.36241484 0.2372269 0.26103041
0.38753864 0.23765652 0.26146019
0.41284224 0.23783575 0.25968972
0.43737569 0.23771282 0.25795707
0.46244198 0.23716336 0.25831345
0.48881912 0.23676668 0.25979942
0.51250923 0.23749569 0.26446912
0.013291739 0.26220396 0.26066703
0.0367967 0.26084182 0.25490469
0.061447166 0.26086473 0.25559944
0.087879173 0.26174375 0.25611606
0.11246997 0.26131406 0.25564617
0.13752621 0.26172045 0.25553119
0.16259564 0.2609334 0.25599179
0.18749298 0.26178059 0.25596634
0.21234769 0.26173222 0.25602806
0.23679914 0.26137513 0.25626186
0.26296359 0.2614429 0.25605395
0.2879557 0.26158959 0.25619468
0.31212169 0.26146039 0.25647604
0.33713949 0.26221284 0.25621724
0.36256802 0.26157349 0.25652608
0.38801861 0.26210818 0.2561287
0.41249713 0.26198283 0.25619161
0.43691745 0.26195437 0.25594783
0.46073252 0.26170528 0.25624055
0.48841918 0.2618711 0.25750083
0.51276404 0.26242664 0.26202792
0.013312501 0.28736207 0.26134443
0.037334103 0.28456816 0.2530787
0.063282765 0.28572875 0.25425631
0.087581255 0.28520086 0.25372475
0.11209776 0.28492263 0.25332609
0.13761109 0.28507385 0.25348434
0.16290155 0.2850917 0.25334361
0.1880842 0.28520381 0.25317627
0.21255945 0.28589419 0.25338179
0.23679708 0.28469777 0.25326535
0.26199895 0.28505531 0.25318626
0.28757501 0.28427052 0.25375158
0.31184596 0.28411636 0.25366136
0.33742014 0.28530449 0.25323075
0.36335912 0.28478768 0.2534014
0.38749745 0.28550124 0.25304297
0.41173771 0.28526652 0.25293365
0.43605021 0.28470233 0.2529363
0.46324408 0.28606027 0.25318813
0.48800841 0.28613585 0.25334942
0.51218009 0.2873432 0.26104784
0.014503307 0.31252015 0.26189971
0.039459381 0.30695543 0.25174972
0.063850813 0.30535802 0.25140408
0.086643189 0.30536985 0.25140518
0.11224866 0.30563086 0.25094876
0.1384556 0.30662879 0.25085759
0.16201963 0.30519471 0.25112423
0.18736432 0.3039673 0.25163209
0.21292274 0.3039158 0.25110671
0.2302814 0.30479893 0.2509436
0.26244077 0.30370742 0.25096613
0.29019657 0.30343929 0.25100148
0.31380692 0.30423865 0.25073537
0.34127229 0.30395028 0.25083295
0.35961142 0.30425647 0.25063151
0.38584098 0.30388272 0.25071624
0.40658811 0.30354321 0.25056401
0.43987206 0.30214801 0.25085476
0.46418959 0.30334541 0.25069574
0.48891073 0.3035759 0.25076059
0.51175201 0.31235787 0.26206365
0.015780542 0.33700532 0.26247621
0.51140934 0.33733773 0.26191643
0.017189475 0.36201984 0.2622408
0.025214136 0.37037385 0.2741099
0.51134431 0.36242512 0.26246083
0.019127073 0.38716099 0.26259536
0.025472775 0.3876082 0.26897255
0.51116973 0.38745981 0.26239631
0.020205172 0.41241896 0.2622923
0.036381353 0.41633222 0.25596604
0.063074514 0.41610268 0.25388151
0.087241992 0.4168466 0.25410265
0.11239816 0.41718128 0.25408581
0.13727376 0.41690347 0.25389767
0.16215576 0.41744322 0.2539224
0.1874368 0.41723305 0.25411257
0.21226385 0.41665581 0.25388396
0.23792873 0.41701883 0.25405806
0.26332945 0.41720742 0.25410965
0.28831208 0.41677907 0.25388432
0.31249624 0.41652343 0.25377876
0.33736882 0.41652331 0.25374517
0.36237842 0.41692588 0.25387841
0.3874599 0.41652262 0.25369939
0.41249985 0.41718116 0.25408727
0.437464 0.41694582 0.25401282
0.46224871 0.41671735 0.25425869
0.48693344 0.41662481 0.2540279
0.50997293 0.41277432 0.26107022
0.020523405 0.43571106 0.2652306
0.037260301 0.43745723 0.26285321
0.062401723 0.43739995 0.26268899
0.087454788 0.43775609 0.26292425
0.11235776 0.4374761 0.26267764
0.1374892 0.43756846 0.26283139
0.16242588 0.43763375 0.262972
0.18720312 0.43774971 0.26326782
0.21241359 0.43744436 0.26288533
0.23738217 0.43725049 0.26280859
0.26270926 0.43752918 0.26300237
0.28791863 0.43752766 0.26322874
0.31290227 0.43732753 0.26309869
0.3374429 0.4372941 0.26318529
0.36244044 0.43782851 0.26355329
0.38741043 0.43750232 0.26340425
0.41248173 0.43777391 0.26374018
0.43760386 0.4374297 0.26359349
0.4628076 0.43743342 0.26369977
0.48750171 0.43751267 0.26406404
0.50829279 0.43536988 0.26494113
0.020037286 0.45178846 0.27254978
0.037236169 0.45268661 0.27211428
0.063317984 0.4531551 0.2724787
0.088820517 0.45269379 0.27252796
0.11133878 0.45300576 0.2723687
0.13797753 0.45254946 0.27190641
0.1622735 0.45261955 0.27216274
0.18812126 0.45253497 0.27178329
0.21215795 0.45325559 0.27213374
0.23690228 0.45263076 0.27142724
0.26343584 0.45280024 0.27158695
0.28634793 0.45252463 0.27130824
0.3127799 0.45297083 0.27137157
0.33841303 0.4533132 0.27184048
0.36314446 0.45333633 0.27181998
0.38630128 0.45356297 0.27199653
0.41169727 0.4537119 0.27164724
0.43875355 0.4531782 0.27126169
0.46241301 0.45342731 0.27163348
0.48701254 0.45350286 0.27167878
0.5081237 0.45320958 0.2711879
-0.002573519 0.0132689 0.29380277
0.012970064 0.012157317 0.29148439
0.037810266 0.011902708 0.29139945
0.062178798 0.011460288 0.29164204
0.087083988 0.012072385 0.29177687
0.11211875 0.012046322 0.29165247
0.13728796 0.011887376 0.29185343
0.16209379 0.011892744 0.29206386
0.18732534 0.011836123 0.2921246
0.21226902 0.011808314 0.29218447
0.23732577 0.011740748 0.29230866
0.26294172 0.012149426 0.29233819
0.28767559 0.011839946 0.29229152
0.31210503 0.011911928 0.29260659
0.33772674 0.012354419 0.29259154
0.36229679 0.012253473 0.29243127
0.38737407 0.012119438 0.29262051
0.41246489 0.012439325 0.29257935
0.43779749 0.012455811 0.29258436
0.46248955 0.012522507 0.29271704
0.48773894 0.012741117 0.29253966
0.51232028 0.013351585 0.29274133
0.52861297 0.013826045 0.29353765
-0.0016275701 0.036088225 0.29454687
0.012317436 0.037608758 0.29282555
0.037546434 0.037408326 0.29241547
0.062508099 0.037013821 0.29221269
0.087380975 0.037401106 0.29240578
0.11202951 0.037288357 0.29239529
0.13743517 0.037582748 0.292788
0.16242099 0.03691268 0.29282025
0.18732807 0.036345117 0.29266128
0.21261777 0.037027448 0.29303113
0.23769501 0.03678133 0.29294178
0.26297182 0.037393991 0.29306856
0.28803483 0.037039787 0.2930544
0.31276843 0.036768038 0.29312414
0.33774814 0.037155014 0.2934424
0.36265227 0.036958728 0.29327765
0.38788798 0.036999855 0.29352632
0.41252285 0.037179083 0.29364535
0.43788114 0.037141431 0.29375103
0.46286803 0.037013263 0.29362392
0.48747906 0.036766432 0.29391509
0.51263571 0.037121244 0.2939136
0.52842999 0.036085419 0.29482183
-0.0016116733 0.062769577 0.29529881
0.012030517 0.06250146 0.29406807
0.036916539 0.062761739 0.29342291
0.062074732 0.062195316 0.29350206
0.087150984 0.062690169 0.29356387
0.11236064 0.062202919 0.29351741
0.13775568 0.062523648 0.29376474
0.16302375 0.062730663 0.29382569
0.18776414 0.062123042 0.29389718
0.21230255 0.06225042 0.29393643
0.23712775 0.062414348 0.29380608
0.2629067 0.062504902 0.29409939
0.28790027 0.062411293 0.29424
0.31225622 0.062269911 0.29425138
0.33767334 0.062609836 0.29414067
0.36317998 0.06221541 0.29445979
0.38780653 0.062489368 0.29437476
0.41343412 0.062136192 0.2943708
0.43806681 0.06208482 0.29472885
0.46172646 0.062725745 0.29463416
0.48750988 0.061970554 0.29472598
0.51244563 0.062629081 0.29465672
0.52722043 0.061738897 0.29567304
-0.0011180904 0.084786698 0.2955521
0.011485103 0.08789584 0.2932623
0.037055843 0.087808795 0.29254276
0.062341191 0.087412551 0.29253352
0.087338485 0.087840341 0.29259709
0.11231358 0.087831222 0.29283586
0.13759331 0.087743238 0.29290769
0.16242951 0.088506363 0.29299951
0.18750514 0.087938696 0.29298118
0.21241562 0.088211209 0.29307809
0.23756169 0.087662771 0.2932674
0.26297915 0.088466443 0.29325601
0.28774592 0.088210016 0.29344708
0.31244555 0.088112459 0.29337585
0.33737993 0.088175215 0.29357108
0.36257187 0.088132642 0.29348752
0.38787374 0.087945141 0.29361039
0.41290602 0.088417806 0.29360214
0.43787354 0.088444054 0.29392862
0.46263787 0.088041261 0.29368484
0.48790914 0.087830044 0.29400504
0.51260108 0.088179991 0.29402825
0.52701449 0.08810354 0.29580018
-0.0004459226 0.10682845 0.29289988
0.01096378 0.11276618 0.29097098
0.037238315 0.11247787 0.28909621
0.062227741 0.11233201 0.28924927
0.087340228 0.11278123 0.28952026
0.11242247 0.11264289 0.28976488
0.13744098 0.11265326 0.28965446
0.16248263 0.11244442 0.28996816
0.18741161 0.11210762 0.28996056
0.21266863 0.11248422 0.29003564
0.2374389 0.11248977 0.29021922
0.26275125 0.11231222 0.29007849
0.28781983 0.11237963 0.28993133
0.31206951 0.11296511 0.29027224
0.33765149 0.11247917 0.29006687
0.36194405 0.11230084 0.29034698
0.38748053 0.11232574 0.29039544
0.41233626 0.11265845 0.29052693
0.43765876 0.1123744 0.29021552
0.46241403 0.112514 0.29069129
0.48773322 0.11276267 0.29068443
0.51356643 0.11280034 0.29164445
0.52736187 0.11234845 0.29292345
-0.00065500289 0.13097513 0.29045016
0.010894121 0.13785736 0.28761855
0.037314747 0.13697739 0.28392768
0.062310725 0.1372989 0.28387222
0.087462448 0.13716477 0.28443989
0.11246783 0.13710788 0.28450292
0.13744436 0.13753019 0.28456342
0.16227238 0.13727851 0.28470644
0.18747491 0.13705981 0.28464285
0.2125131 0.13718332 0.28476137
0.23746528 0.13717838 0.28454927
0.26279509 0.13720176 0.28486013
0.28787994 0.13721859 0.2848517
0.31263 0.13749319 0.28489372
0.33726159 0.13747495 0.28498751
0.36265516 0.13781284 0.28496507
0.38748497 0.13750786 0.28509271
0.4119947 0.1373983 0.2851615
0.43714857 0.13687642 0.28538439
0.46225485 0.13740817 0.28515017
0.48735154 0.13726972 0.28558469
0.51392293 0.13744368 0.28778714
0.52666157 0.13720374 0.29121184
0.010219986 0.16180183 0.28562132
0.037332114 0.15984094 0.27911684
0.062163644 0.15993108 0.28003708
0.087519735 0.16079715 0.2801874
0.11223924 0.16084328 0.28023306
0.13752283 0.16073301 0.28010148
0.16243845 0.16058043 0.28016537
0.18763159 0.16047838 0.27995735
0.21232833 0.16055292 0.28025162
0.23712766 0.16081016 0.28029791
0.26274097 0.16103955 0.28044981
0.28790122 0.1607372 0.28019008
0.31294182 0.16115677 0.2806147
0.33768886 0.16100805 0.28066084
0.36243203 0.16128168 0.28058791
0.38744706 0.16129811 0.28068876
0.41246223 0.16110095 0.28047144
0.43747833 0.16103555 0.28053862
0.46248114 0.16122861 0.28080308
0.48791549 0.16162285 0.2812556
0.51571757 0.16275747 0.28555873
0.52596676 0.16031928 0.28789055
0.009302048 0.18722036 0.2866002
0.036345948 0.18362506 0.27791893
0.062751614 0.18507537 0.27847409
0.088419698 0.18541069 0.27788863
0.11279602 0.1843337 0.27787542
0.13719535 0.18419103 0.27799514
0.16152918 0.18362267 0.27799174
0.18772307 0.18384914 0.27836639
0.21330112 0.18563242 0.27763939
0.23798175 0.18479943 0.27780834
0.26281351 0.18553372 0.27771884
0.28714952 0.18446377 0.27799317
0.31202477 0.18461971 0.2777237
0.33866748 0.18421507 0.27790204
0.36322454 0.18388647 0.27801755
0.38751763 0.18418838 0.27785307
0.41329581 0.18331006 0.27790275
0.43604782 0.18344799 0.27746597
0.46237308 0.18419915 0.27805665
0.48802438 0.18483561 0.27770865
0.51713902 0.18702258 0.28515333
0.52551991 0.18483438 0.287314
0.0098759215 0.21263234 0.28828794
0.037878692 0.21494721 0.29547167
0.062440217 0.21867205 0.29658207
0.087206729 0.21604139 0.29487085
0.11325597 0.21424462 0.2922678
0.13830516 0.2156112 0.29462636
0.16337888 0.21508768 0.29379666
0.18604301 0.21616194 0.29604217
0.21363276 0.21574605 0.29309499
0.23703153 0.21400107 0.29298508
0.26420927 0.21617834 0.29455772
0.28587568 0.21626434 0.29378256
0.31302509 0.21552655 0.29394758
0.33556598 0.21747866 0.29700679
0.36223918 0.2146637 0.29546458
0.38615417 0.21606384 0.29736131
0.41097602 0.21548851 0.29640201
0.43653136 0.21618278 0.29779509
0.46235681 0.21644396 0.29742634
0.48902971 0.21600987 0.29534927
0.51812983 0.21261792 0.28770819
0.52526438 0.2059857 0.29674587
0.012496545 0.23763131 0.28936118
0.037267987 0.2391891 0.29711905
0.062379889 0.23899974 0.29726148
0.087803744 0.23845445 0.29729983
0.11274964 0.23891141 0.29732257
0.13799407 0.2393043 0.29723537
0.16210175 0.23894107 0.29740787
0.18737198 0.23942377 0.29744366
0.21280809 0.24016663 0.29739857
0.23933475 0.23809296 0.29740804
0.26302266 0.24029657 0.29734075
0.28643328 0.23951718 0.29731783
0.31154823 0.2393101 0.29744247
0.33738241 0.23893017 0.29742065
0.3612991 0.23904102 0.29720643
0.38721362 0.23843475 0.2973218
0.41246647 0.23825446 0.297409
0.43755126 0.23928553 0.29694659
0.46308637 0.23937604 0.29730386
0.48766306 0.23965034 0.29723611
0.51558906 0.23785682 0.28849798
0.013675286 0.26242724 0.28828916
0.037610658 0.26307142 0.29495433
0.062361948 0.26265195 0.29510614
0.086890779 0.26291242 0.29514894
0.11229888 0.26372206 0.2950744
0.13711832 0.26364866 0.29517466
0.16263311 0.26320115 0.29532823
0.18756022 0.26368994 0.29531112
0.21287467 0.2635659 0.29536116
0.2371415 0.263776 0.29570225
0.26203078 0.26414359 0.2953833
0.28718176 0.26377687 0.29537764
0.31247616 0.26348376 0.29545566
0.33747962 0.26377293 0.29549217
0.36222091 0.26437113 0.29563186
0.38764679 0.26380858 0.29546434
0.41252267 0.26431838 0.2958996
0.43773648 0.26397175 0.29584411
0.46249536 0.26413149 0.29574037
0.48786363 0.26491919 0.29607639
0.51329333 0.26276153 0.28888416
0.015218053 0.28715217 0.28703809
0.037269421 0.28873289 0.29171896
0.062025212 0.28819814 0.29213578
0.087668493 0.28752586 0.2923373
0.1124604 0.2881541 0.29250139
0.13683754 0.28793472 0.29274219
0.16196197 0.28775856 0.29307726
0.18698941 0.28801122 0.29323256
0.21139966 0.28783602 0.29312125
0.23721492 0.28817096 0.2934145
0.2630794 0.28868863 0.29358828
0.28789693 0.28810829 0.29378119
0.31232354 0.28834769 0.29395902
0.33756027 0.28826839 0.29422155
0.3624385 0.28830954 0.29395032
0.38736221 0.28832132 0.29454306
0.41262698 0.28840911 0.29443914
0.43786618 0.28819779 0.29458609
0.46257111 0.28847143 0.29459143
0.48707801 0.28874531 0.29469508
0.51109666 0.2870546 0.28862438
0.016215175 0.31187671 0.28531614
0.03806664 0.31310353 0.28927305
0.062494967 0.3122921 0.2893219
0.087092951 0.31252471 0.28945988
0.11277149 0.31257555 0.28984076
0.13708632 0.31305259 0.2900264
0.1621955 0.31235346 0.28987876
0.18714176 0.3124038 0.29030275
0.21235093 0.31295466 0.29017791
0.23755795 0.31241176 0.29045081
0.26260206 0.31291068 0.29003304
0.28770518 0.31271836 0.2911084
0.31225044 0.31282645 0.29028356
0.3373571 0.312554 0.29100809
0.36272573 0.3132641 0.2909331
0.38711652 0.31290999 0.2905699
0.41270864 0.31224555 0.29108572
0.4374392 0.31254479 0.29118159
0.46207073 0.3129656 0.29127231
0.48819509 0.31267568 0.29124823
0.510086 0.31191096 0.285925
0.017717285 0.33665937 0.28285632
0.037514511 0.33746049 0.28551516
0.062536687 0.33782098 0.28561416
0.087853327 0.33741918 0.28612638
0.1124586 0.33802125 0.28628451
0.13710944 0.33779415 0.28597969
0.16312027 0.33765277 0.28658608
0.18756202 0.33708057 0.28659323
0.21379489 0.33755311 0.28678146
0.23831145 0.33763593 0.28717309
0.26316258 0.33744192 0.28683957
0.28721696 0.33801046 0.28695086
0.31289908 0.33749396 0.28728682
0.33735749 0.33701283 0.28736043
0.36253831 0.33826777 0.28728107
0.38798487 0.33794492 0.28755432
0.41228545 0.33736342 0.28785452
0.43846279 0.33761624 0.28767249
0.46210662 0.33800071 0.28803667
0.48710015 0.33722988 0.28778684
0.50911206 0.33729127 0.28456348
0.019037379 0.36256647 0.28129315
0.037210248 0.36243263 0.28333431
0.062498473 0.3628045 0.28370458
0.087829426 0.36255062 0.28382677
0.1123691 0.36276227 0.2837103
0.13791674 0.36227286 0.28392547
0.16315272 0.3629317 0.28459972
0.187785 0.36268455 0.28413484
0.21285747 0.362425 0.28470695
0.23737442 0.36259094 0.28452465
0.2625179 0.36265257 0.28502041
0.2873669 0.36272269 0.28429255
0.31257626 0.36253959 0.28491271
0.33833057 0.36285427 0.28487098
0.36327997 0.36267427 0.28489545
0.38841969 0.36229563 0.28544
0.41340455 0.36251432 0.28506726
0.43802455 0.36277592 0.28535295
0.46284628 0.36283103 0.28541195
0.48722926 0.36215585 0.28566909
0.50890183 0.36268276 0.28295556
0.020150159 0.38884774 0.28458753
0.037519015 0.38706538 0.28824958
0.062478092 0.38735092 0.2887882
0.08759778 0.38718224 0.28889531
0.11263663 0.38774621 0.28922012
0.13772048 0.38728565 0.28912497
0.16246957 0.38768291 0.28952023
0.18754841 0.38721576 0.28924847
0.21299522 0.38741279 0.28943792
0.23777761 0.38752344 0.28973886
0.26284245 0.38735363 0.28954473
0.2876054 0.38739386 0.28995323
0.31244954 0.387288 0.28980741
0.33747131 0.38774675 0.29009789
0.36271763 0.38733029 0.29014492
0.38769096 0.38734674 0.29006439
0.41263482 0.38755718 0.29030886
0.4376646 0.38734785 0.29023737
0.46258932 0.38733298 0.29030517
0.48752484 0.38694081 0.29039145
0.50931287 0.38812611 0.28627473
0.020407012 0.41235137 0.28795865
0.034539014 0.40710503 0.29418787
0.062372915 0.40497315 0.29579949
0.087691233 0.40537205 0.29594755
0.11349083 0.40524629 0.29622331
0.13777113 0.40537536 0.29625785
0.16185068 0.4053005 0.29574144
0.18690018 0.40547282 0.29630393
0.21217641 0.40522546 0.29581645
0.23789544 0.40557238 0.29586536
0.26196751 0.4046469 0.29580507
0.2869719 0.40553442 0.2954964
0.31151965 0.40536904 0.29616573
0.33695477 0.40563899 0.29589912
0.36169547 0.40551519 0.29594454
0.38716307 0.40528354 0.2956655
0.41161019 0.40526512 0.29578039
0.43844569 0.40536472 0.29540169
0.46284074 0.40554598 0.29632333
0.48786038 0.40492433 0.29654998
0.50877732 0.41177127 0.28791189
0.020483669 0.43754965 0.28779066
0.032419775 0.44266513 0.28261101
0.062855065 0.44757321 0.27767387
0.088864081 0.44748089 0.27783734
0.11325841 0.44742265 0.27716443
0.13768078 0.44739306 0.27730632
0.16192514 0.44732442 0.27745497
0.18882097 0.44728965 0.27748516
0.21203114 0.4476108 0.27741185
0.23808177 0.44791809 0.27751905
0.26313061 0.44737658 0.27734354
0.28792712 0.44772166 0.27780309
0.31336251 0.44811344 0.27755585
0.33734193 0.44830355 0.27765501
0.36183062 0.44820157 0.27788547
0.38772255 0.44780114 0.27739054
0.41280183 0.44846472 0.27791336
0.43735313 0.44807297 0.27754125
0.46191549 0.44788048 0.27711284
0.48897213 0.44785324 0.27705619
0.50779712 0.43770364 0.2872498
0.020667061 0.45880342 0.28988296
0.037308831 0.46148267 0.28805688
0.062325768 0.46146676 0.28770143
0.087709986 0.46160537 0.2880159
0.11258187 0.46150321 0.28792441
0.13739932 0.46119171 0.28739053
0.16233674 0.46141744 0.28773534
0.18740252 0.46142107 0.28766409
0.21263869 0.46142903 0.28794298
0.23757228 0.4613224 0.28781933
0.26248288 0.46137115 0.28781927
0.28758219 0.46122637 0.28778332
0.31265131 0.461364 0.28811106
0.33780488 0.46142018 0.28793886
0.3627702 0.46127695 0.28806111
0.38761869 0.46105346 0.28780481
0.41262716 0.4611159 0.28796116
0.43743816 0.46094531 0.2878772
0.46287069 0.46115756 0.28827837
0.48794064 0.46106449 0.28805003
0.50582284 0.45873484 0.28949541
-0.0024926022 0.013782993 0.30842176
0.011964565 0.013148558 0.31074819
0.0378985 0.012078898 0.31092623
0.062955305 0.012324094 0.31141099
0.087795883 0.012103281 0.31110278
0.11260422 0.012081798 0.31133041
0.13752218 0.012075391 0.31134084
0.16259068 0.01213945 0.31138742
0.18770866 0.012584443 0.31188244
0.21263744 0.01211561 0.31165755
0.23772292 0.012282852 0.31179249
0.26285273 0.012036389 0.31195745
0.2875886 0.011880398 0.31161851
0.31268135 0.012395316 0.3122035
0.33760634 0.012083882 0.31205517
0.36229855 0.012319929 0.3122206
0.38765797 0.011986994 0.31183207
0.41276574 0.011676562 0.31177303
0.43745646 0.012174949 0.31217584
0.46263289 0.012190135 0.31218776
0.48751456 0.012132601 0.3124302
0.51238912 0.011843687 0.31203088
0.52852887 0.014361048 0.30827102
-0.0018394012 0.036557917 0.31185511
0.010469714 0.037623927 0.31481305
0.037687358 0.036757477 0.31706315
0.062517658 0.036788236 0.31720293
0.087807544 0.036851324 0.31721213
0.11252191 0.036691785 0.31696227
0.13764119 0.037066486 0.31710047
0.16246393 0.036825392 0.31713271
0.18758011 0.03664732 0.31733546
0.21259028 0.036533538 0.31703213
0.23757634 0.036621399 0.31739765
0.26286292 0.036229473 0.31693301
0.28804573 0.036421724 0.3175137
0.31270057 0.036948975 0.31739914
0.33719468 0.036405761 0.31747514
0.36235803 0.036366932 0.31776342
0.38727438 0.036591884 0.31761533
0.4125506 0.036790039 0.31834939
0.43781483 0.036636263 0.3179813
0.4624255 0.036455963 0.31795648
0.48778868 0.036557838 0.31823161
0.51325893 0.037289374 0.31684443
0.52847594 0.037195221 0.31157473
-0.0013537882 0.062386725 0.31214726
0.0090136947 0.062516816 0.31523195
0.037434973 0.062651575 0.31765503
0.062944427 0.06249398 0.31752086
0.087548658 0.062348083 0.31779665
0.11227511 0.061921909 0.31745538
0.13716137 0.062054105 0.31696767
0.16253872 0.061966676 0.31721437
0.18726718 0.062498949 0.31701759
0.21260694 0.061977658 0.31694105
0.23721725 0.061524797 0.31713876
0.2623052 0.061472468 0.31723389
0.28748214 0.062119771 0.31595826
0.31273571 0.062207948 0.31636617
0.33741853 0.062057462 0.31623417
0.3621712 0.061733499 0.31679997
0.38723987 0.062000364 0.31518948
0.41266641 0.062182721 0.31603053
0.43804967 0.062049359 0.31604224
0.46236363 0.062315181 0.31554303
0.48713523 0.062073544 0.31511959
0.51643461 0.062832795 0.313279
0.52726215 0.062087625 0.31231353
-0.00066239381 0.085324116 0.31074259
0.0089301756 0.087369733 0.31471208
0.037587393 0.087387197 0.31853995
0.06206638 0.087261572 0.31921345
0.087729529 0.086718932 0.31870127
0.11283711 0.086945489 0.31862277
0.13747488 0.086835906 0.31864676
0.16250305 0.08693669 0.31825691
0.18742885 0.087308079 0.31820941
0.21228546 0.086503454 0.31826708
0.2367045 0.086557634 0.31831914
0.26198289 0.087170348 0.31873053
0.2875725 0.087078251 0.31857476
0.31253633 0.086551242 0.31820804
0.33745179 0.086499177 0.31838813
0.36264643 0.086479619 0.31803265
0.38780713 0.086024866 0.31775141
0.41235656 0.086664326 0.31846473
0.43711194 0.08640638 0.31809926
0.46236405 0.086666375 0.31808236
0.48710862 0.086100079 0.31786004
0.51636469 0.086790152 0.31425238
0.52667493 0.08694043 0.31236264
0.0097265607 0.11235535 0.3143771
0.036861174 0.113347 0.31942245
0.061896455 0.11335356 0.31948054
0.087531045 0.11217337 0.31925359
0.11278591 0.11293861 0.31959128
0.13740292 0.11358462 0.31976172
0.16251346 0.11300133 0.31988719
0.18757913 0.11284745 0.31981829
0.21231444 0.11306336 0.32001814
0.23689312 0.11364049 0.32001159
0.26243395 0.11428051 0.32004476
0.2879574 0.11325336 0.31997567
0.31271705 0.11364987 0.32024813
0.33756402 0.11325255 0.32017162
0.3628023 0.11340486 0.32000318
0.38786519 0.11377446 0.3201924
0.412738 0.11367827 0.32047048
0.43815142 0.11366604 0.32041061
0.46287981 0.11411466 0.32056138
0.48725268 0.11381117 0.32050833
0.51666695 0.1127719 0.31564519
0.52670372 0.11236476 0.31232506
0.01077399 0.13687234 0.31347567
0.037101451 0.13762395 0.31699246
0.062146325 0.13780056 0.31714949
0.087614924 0.13740569 0.31739452
0.11247286 0.13766821 0.31765458
0.1376777 0.13785367 0.31755412
0.16221464 0.13755748 0.31767422
0.18703821 0.13782384 0.31796202
0.21210928 0.13784283 0.31785667
0.23722367 0.13804275 0.31816903
0.26274806 0.13762435 0.31824481
0.28779125 0.13786529 0.31859896
0.31285876 0.13774826 0.31861231
0.33751705 0.13783942 0.31879631
0.36265105 0.13784894 0.31885052
0.38739941 0.13760965 0.31898856
0.41281989 0.13788742 0.31917098
0.43784937 0.13771664 0.3192721
0.46257833 0.13785107 0.31930235
0.48753852 0.13750121 0.31947589
0.51541233 0.13718322 0.31578746
0.5266639 0.13591498 0.31157401
0.012077007 0.16226521 0.31101039
0.037247181 0.16216055 0.31357551
0.062358696 0.16214631 0.31390151
0.08724729 0.16243181 0.31392267
0.11257259 0.16262966 0.31392765
0.13734682 0.16215792 0.31445366
0.1626026 0.16236338 0.31436878
0.18742675 0.16275758 0.31442824
0.21263638 0.16237277 0.31441459
0.23790555 0.16263835 0.31442094
0.26359111 0.16211577 0.31522068
0.28771159 0.16246961 0.31471106
0.31221735 0.16258359 0.31510594
0.33743104 0.16217723 0.31515288
0.36227524 0.16246971 0.315182
0.38743639 0.16239734 0.31531632
0.41254479 0.16221355 0.31553051
0.4373571 0.16221674 0.31546581
0.46257699 0.16272861 0.31546891
0.48729187 0.16182081 0.31567815
0.51412052 0.16236694 0.31307876
0.52612627 0.16022672 0.30894771
0.013697418 0.1872998 0.30819386
0.037288006 0.18768872 0.30930737
0.062343493 0.18773398 0.30967593
0.087304279 0.18806881 0.30953458
0.11249314 0.18806927 0.30984372
0.13789411 0.18767475 0.30992982
0.16235985 0.18770441 0.30999947
0.18777148 0.18791142 0.30997434
0.21241757 0.18744501 0.31058958
0.23679052 0.18788099 0.31049293
0.26214564 0.18838274 0.31042957
0.28796601 0.18744019 0.31066915
0.31235015 0.18760338 0.31078908
0.33737031 0.18777062 0.31110001
0.36229753 0.18752983 0.31106368
0.38777766 0.18776447 0.3109915
0.41275272 0.18757154 0.31121528
0.437747 0.18732272 0.31144667
0.46264365 0.18770345 0.31131244
0.48741302 0.18773659 0.31143153
0.51345325 0.18733831 0.30972975
0.52575994 0.18351667 0.3053509
0.014751079 0.21151021 0.30571437
0.037556849 0.21166246 0.30613148
0.062897459 0.21204343 0.30602199
0.087478876 0.21217638 0.3063674
0.11194285 0.21171343 0.30630025
0.13729769 0.21198796 0.30641848
0.16203108 0.21183743 0.30683374
0.18756655 0.2118216 0.30692914
0.21217167 0.21189357 0.30705467
0.23697641 0.21195197 0.30699179
0.26310465 0.21168295 0.3069669
0.28801331 0.21188223 0.30715102
0.31254908 0.21214937 0.30722159
0.33786818 0.21162395 0.30750054
0.3630057 0.21215217 0.30749434
0.38777679 0.21210238 0.30767581
0.41245338 0.21203518 0.30778444
0.43765208 0.21232219 0.30790973
0.4623664 0.21202052 0.30797693
0.48729533 0.21221043 0.30796051
0.51232427 0.21190152 0.30722126
0.015235635 0.23593611 0.3042458
0.037646025 0.23587784 0.30466765
0.062259439 0.23632322 0.30435345
0.087436885 0.23663041 0.30461794
0.11277378 0.23626567 0.30467594
0.13759166 0.23590823 0.30478457
0.16292505 0.23607625 0.30463085
0.18769255 0.23601432 0.30481014
0.2125089 0.23633185 0.30469921
0.23780008 0.2366762 0.30468282
0.26181522 0.23568918 0.30505618
0.2872774 0.23684369 0.30503407
0.31301954 0.23619726 0.30490682
0.33791497 0.23667698 0.3050524
0.36223373 0.23677 0.30495074
0.3873421 0.23717947 0.3049131
0.412249 0.23651439 0.30506545
0.43767396 0.23701651 0.30498067
0.46257892 0.23638396 0.3049714
0.48755008 0.23680504 0.30494037
0.51025748 0.23640427 0.30458748
0.01651264 0.26069507 0.30304441
0.037334718 0.2607348 0.30325341
0.063226208 0.26082781 0.30326894
0.088256091 0.26140931 0.30307034
0.11240696 0.26010111 0.30293268
0.13804713 0.25984454 0.30321258
0.16354993 0.26138577 0.30310771
0.18760313 0.26036763 0.30298272
0.21267903 0.26106709 0.30313462
0.23705509 0.26115212 0.3030608
0.26362404 0.26163849 0.3027873
0.28877452 0.2601175 0.30291447
0.31241637 0.26109588 0.3028681
0.33692729 0.26128396 0.30286926
0.36299577 0.26088217 0.30275005
0.3873046 0.26087609 0.3026613
0.41228116 0.26119915 0.30272695
0.43745306 0.26162508 0.30255926
0.46222585 0.26134247 0.30248293
0.48734358 0.26132345 0.30243531
0.50826287 0.26028728 0.30241585
0.017574565 0.28281114 0.30128109
0.036338162 0.28246841 0.30131549
0.060229808 0.28268054 0.30112222
0.086658955 0.28259304 0.30157876
0.11241259 0.28369853 0.3011111
0.13657236 0.28233734 0.30122343
0.16073602 0.28195217 0.30125922
0.18770717 0.28281105 0.30107018
0.21070035 0.28108194 0.30104679
0.23636298 0.28233054 0.30097577
0.26470563 0.28114948 0.30103895
0.2905362 0.27981439 0.30104694
0.31271699 0.28193954 0.30090901
0.33737269 0.28006184 0.30094364
0.36148465 0.27963868 0.30096963
0.38649794 0.27837759 0.30093277
0.41122705 0.28013727 0.30074951
0.43696958 0.28115821 0.30073974
0.46226409 0.27985048 0.30082545
0.48845634 0.27957782 0.30088863
0.50793529 0.27852991 0.30082881
0.023321897 0.3955588 0.30200794
0.039985199 0.39568186 0.30188426
0.063388884 0.39698628 0.3016395
0.08712551 0.39620885 0.30194536
0.11273246 0.39710313 0.30149072
0.13693143 0.39785492 0.30194071
0.16308533 0.39663106 0.30212286
0.18284672 0.39740351 0.30184516
0.20868094 0.39683971 0.3014406
0.23730093 0.39709669 0.30190617
0.26375458 0.39821777 0.30186459
0.28908023 0.39741105 0.3018679
0.31400332 0.39760926 0.30186462
0.33846274 0.39690205 0.30141926
0.36237457 0.3972643 0.30144581
0.39094856 0.39709473 0.30154535
0.41221711 0.397495 0.30108249
0.4354274 0.39747497 0.30180597
0.46226737 0.39745572 0.30164686
0.48839808 0.39793864 0.30132416
0.50507784 0.39810482 0.30190271
0.019944606 0.41721576 0.30869588
0.037002943 0.41589418 0.30996543
0.062116589 0.41591892 0.30985233
0.087587431 0.41505554 0.30932286
0.11255829 0.41568831 0.31014851
0.13705122 0.41568214 0.31021073
0.16236073 0.41503555 0.30965787
0.18788503 0.41529462 0.31018624
0.21219328 0.41530558 0.31035441
0.23702256 0.41475597 0.30975193
0.26262093 0.4150877 0.31026453
0.2874822 0.41490686 0.30995753
0.3127028 0.41482341 0.3102271
0.33728236 0.41468355 0.31022033
0.36281711 0.41463834 0.31004703
0.38791215 0.41438657 0.31010029
0.41263857 0.41456059 0.31050456
0.43800703 0.41461894 0.31032616
0.46283293 0.41466871 0.31060615
0.48741445 0.41461068 0.31085131
0.50627697 0.4161326 0.30907628
0.020325834 0.43724492 0.31313056
0.034043226 0.43018791 0.31876919
0.06197007 0.42700455 0.32118008
0.087561235 0.42695782 0.32132754
0.11225907 0.42693955 0.32120377
0.13714482 0.4269481 0.32111287
0.16317214 0.4270739 0.32171717
0.18676478 0.42735302 0.32144976
0.21317638 0.42719606 0.32160088
0.23830996 0.42729026 0.32097885
0.26410738 0.42750007 0.32112908
0.28928348 0.42740512 0.32075182
0.31395969 0.42731133 0.32141179
0.33870316 0.42689767 0.32070178
0.36198077 0.42740765 0.32057363
0.38768825 0.4273954 0.32041094
0.41271254 0.42736709 0.31985143
0.43637881 0.42767251 0.32104537
0.46184438 0.4270806 0.3201156
0.48693863 0.42758033 0.32087141
0.5067187 0.43737248 0.31282613
0.020332672 0.46271285 0.31232724
0.036637481 0.47066712 0.30887249
0.062671363 0.47164044 0.30806535
0.087483354 0.47176203 0.30812052
0.11261596 0.47189462 0.30841461
0.13778606 0.47178668 0.30815384
0.16252409 0.47165176 0.30790931
0.18758267 0.47178996 0.3083908
0.21250898 0.47186217 0.30831325
0.23741071 0.47187361 0.30854556
0.26245865 0.47181717 0.30858865
0.28744826 0.47191116 0.30855435
0.31267211 0.47180963 0.308678
0.33791021 0.47173557 0.30847174
0.36255804 0.47178379 0.30884281
0.38769555 0.47164097 0.30864397
0.41286346 0.47184438 0.30885518
0.43741274 0.47171837 0.3086375
0.46234694 0.47159928 0.30867106
0.48770979 0.47168556 0.30924702
0.50626099 0.46348163 0.31193116
0.020884717 0.47717285 0.31946597
0.037485782 0.47681874 0.31823635
0.062044039 0.47710493 0.31856176
0.087795071 0.47696114 0.3184858
0.11254786 0.47706902 0.31856251
0.13651575 0.47718111 0.31838933
0.16242293 0.47691143 0.31802437
0.18705153 0.47727954 0.31888357
0.21181592 0.4771643 0.31859088
0.23756295 0.47725886 0.31886148
0.26370633 0.47706875 0.31813362
0.28791979 0.47713298 0.31831762
0.31191397 0.47735035 0.3187001
0.33728406 0.47723773 0.3186354
0.36307108 0.47719482 0.31855759
0.38818946 0.47726908 0.31846839
0.41283891 0.47728005 0.31856591
0.43782315 0.47709939 0.31847003
0.46201408 0.47734642 0.31874129
0.4871473 0.47716707 0.31808066
0.5056268 0.47690597 0.31826484
-0.0013585091 0.044236124 0.32574069
0.012522695 0.041718844 0.32651916
0.037314691 0.041798744 0.32665771
0.062886111 0.042540424 0.32656801
0.088104166 0.043036945 0.32665095
0.11308002 0.041824806 0.32648116
0.13736418 0.042337883 0.3266398
0.16319939 0.042435687 0.32646665
0.18689187 0.042845335 0.32641223
0.21277316 0.043181513 0.32638708
0.23745434 0.04263141 0.32638615
0.26147655 0.042347316 0.3261753
0.28682429 0.042590253 0.32641968
0.31343454 0.043029919 0.32625249
0.33789131 0.04413652 0.32625341
0.36213148 0.043113347 0.32622296
0.38701245 0.04326671 0.32610208
0.41266465 0.043106303 0.32599682
0.43858993 0.043941382 0.32618889
0.46352643 0.044195767 0.32601324
0.4866153 0.044027418 0.32596561
0.51150328 0.044291493 0.32597056
0.52630424 0.043593198 0.32625252
-0.0010607243 0.063603826 0.32787931
0.013279079 0.062427241 0.32770073
0.038016193 0.062191468 0.32795641
0.062320359 0.062254086 0.32793164
0.086875521 0.062402301 0.32784018
0.11164395 0.063320845 0.32787532
0.13728972 0.062363379 0.3279514
0.16268264 0.062392652 0.32776862
0.18831122 0.063009977 0.32804397
0.21292271 0.062858216 0.32780543
0.23775257 0.06281279 0.32775092
0.2628296 0.062531076 0.32779729
0.28820375 0.061797079 0.32771575
0.31257066 0.062778413 0.32771292
0.33747315 0.063155137 0.3276327
0.36299282 0.062307466 0.32769549
0.38752764 0.062717669 0.32755372
0.41222921 0.062305972 0.3275156
0.43814975 0.061930347 0.3275409
0.46276358 0.063030079 0.32744557
0.48784149 0.062698789 0.32746005
0.51252359 0.06236764 0.32734516
0.52598572 0.064399891 0.32689843
-0.0015948638 0.075694293 0.32535303
0.01341603 0.086964361 0.32776082
0.037889495 0.087271877 0.32817689
0.06246388 0.087107934 0.32801229
0.087138563 0.086882532 0.32799146
0.11219984 0.087565459 0.32802457
0.13653904 0.087368332 0.3279154
0.16166013 0.087031163 0.32792413
0.18732013 0.087243073 0.32799536
0.21286663 0.087251857 0.32785887
0.23742503 0.087844342 0.32790127
0.26322797 0.087444037 0.32790589
0.28801078 0.087463588 0.32780913
0.31302613 0.087177135 0.32782578
0.33835706 0.087972827 0.32775229
0.36348027 0.087397583 0.32778552
0.38690576 0.087199412 0.32769549
0.41221121 0.087384224 0.32762057
0.43776855 0.087221198 0.32770091
0.46249956 0.087946877 0.32748899
0.48773414 0.087541021 0.32760572
0.51216412 0.087414905 0.32758716
0.52669007 0.086872287 0.32671326
0.014827441 0.11120477 0.32758179
0.038775843 0.10982128 0.32746673
0.063340142 0.1112041 0.32754746
0.088328496 0.11012915 0.3275167
0.11266232 0.11112772 0.32737148
0.13690399 0.11089399 0.32742089
0.16232105 0.11070612 0.32727298
0.18718402 0.11056647 0.3273437
0.21244435 0.11021573 0.32736123
0.23785235 0.11108254 0.32705304
0.26205453 0.11072277 0.32710093
0.28819767 0.11178655 0.32706979
0.31332511 0.11012018 0.32707673
0.33792982 0.11066263 0.32698449
0.36309114 0.11120062 0.32695913
0.38789213 0.11050343 0.32683325
0.41220814 0.11022265 0.32686731
0.43840092 0.1111514 0.32682729
0.46343678 0.11056209 0.32672396
0.48749337 0.11070719 0.32664096
0.51183832 0.11088076 0.32665786
0.5269298 0.10480464 0.32608473
0.013030217 0.13321516 0.32622167
0.040023938 0.13269231 0.32604089
0.063223533 0.13214843 0.32589385
0.087801345 0.13183033 0.32602912
0.11306442 0.13039698 0.32599318
0.13758293 0.13181466 0.32590044
0.16437095 0.13092455 0.32603386
0.18870939 0.13105209 0.32576659
0.21071437 0.1303186 0.32582057
0.23557988 0.13069408 0.32577586
0.2614201 0.12991072 0.32566908
0.28873247 0.12998301 0.3255747
0.31309482 0.12913758 0.32546887
0.3392615 0.12893772 0.32554805
0.3635045 0.12804237 0.32552996
0.38907167 0.12790744 0.32561353
0.40787333 0.12858959 0.3253465
0.43584779 0.12801005 0.32540086
0.46199971 0.12811786 0.32525048
0.49017203 0.12763114 0.32529938
0.50827336 0.12841855 0.32525501
0.021307372 0.42302775 0.32882398
0.037248619 0.42349958 0.32813242
0.062636249 0.42339006 0.32831174
0.08739467 0.42329749 0.32782
0.11129967 0.42390367 0.32867411
0.13709074 0.42378235 0.32893771
0.16495332 0.42359886 0.3280341
0.18816331 0.42341089 0.32785925
0.212935 0.42368737 0.32818803
0.23800521 0.42364311 0.32803875
0.26126468 0.42380792 0.32872146
0.28902844 0.42355207 0.3277953
0.31171995 0.42380556 0.32795572
0.33798653 0.42344764 0.32798204
0.36151439 0.42375168 0.32786644
0.38782135 0.42353341 0.32818317
0.4145743 0.42383066 0.32772249
0.43882954 0.42379263 0.32794327
0.46139851 0.4234589 0.32776782
0.48884988 0.4239437 0.3276245
0.5045498 0.42374578 0.32899329
0.020168964 0.43851215 0.33710277
0.036329877 0.43225697 0.33787221
0.062380575 0.43159312 0.33800927
0.0876344 0.43168247 0.33863083
0.11242896 0.43162733 0.33820316
0.13735037 0.43151888 0.33792484
0.16218865 0.43129364 0.33776748
0.18698528 0.43141422 0.33842969
0.21193942 0.43124449 0.33760756
0.23743309 0.43137711 0.33799303
0.26274174 0.43138161 0.33829594
0.28739646 0.43128547 0.33812025
0.31260568 0.43129349 0.33804446
0.33770841 0.43115339 0.33782706
0.36254871 0.43134689 0.33823523
0.38761443 0.43105224 0.33779094
0.41269878 0.4312664 0.3381044
0.43761116 0.43102664 0.33790645
0.46261421 0.43102109 0.33800793
0.48730323 0.43111312 0.33844227
0.50634581 0.43800917 0.33700594
0.020233342 0.46255004 0.3375172
0.026316926 0.46427578 0.33735129
0.14479917 0.47470653 0.32519403
0.16426581 0.47488427 0.32566023
0.28999266 0.47482508 0.32518592
0.428945 0.4749434 0.32517654
0.50666255 0.46239057 0.33693752
0.020311847 0.47870725 0.33814368
0.037603091 0.47963768 0.33785138
0.062631875 0.47962931 0.33766323
0.08755704 0.47959208 0.33738399
0.11269324 0.47971404 0.33768886
0.13813305 0.47974136 0.33798927
0.16271773 0.47983694 0.33808738
0.18776137 0.47979361 0.33816877
0.21277963 0.47977981 0.3375901
0.2377228 0.47986177 0.33825877
0.26283565 0.47982627 0.33814105
0.28731003 0.47981074 0.33768079
0.31244746 0.47978997 0.33763748
0.33780655 0.47975558 0.33795562
0.36242402 0.4799048 0.33797488
0.38720718 0.47977546 0.33798647
0.41243964 0.47977465 0.33706787
0.43752444 0.47973251 0.33761936
0.46198711 0.47977728 0.33775997
0.48728451 0.47967947 0.33758622
0.50556707 0.47894943 0.33819461
0.020393066 0.44109654 0.36222056
0.036479533 0.43683055 0.36241683
0.06216513 0.43630034 0.36213717
0.087626159 0.43636817 0.36231849
0.11237153 0.43640679 0.36279184
0.13688149 0.43618834 0.36209556
0.16217472 0.43632224 0.3624368
0.18719323 0.43645063 0.36252394
0.21259826 0.43625107 0.36241615
0.23751628 0.43629557 0.3628597
0.26276559 0.43633187 0.36277565
0.28754053 0.43635938 0.36261514
0.3123993 0.43631449 0.36247858
0.33739775 0.4362933 0.36268264
0.36223546 0.43633896 0.36229596
0.38741958 0.43621278 0.36230966
0.41249189 0.43636304 0.36297363
0.43762398 0.43613398 0.36190158
0.46257019 0.4362281 0.36258057
0.48786882 0.43626016 0.36270893
0.50610209 0.44155976 0.36176533
0.020225503 0.46255225 0.36259824
0.026050348 0.46227577 0.36120689
0.50655162 0.46233398 0.36229426
0.020402547 0.48066124 0.36284682
0.037154801 0.4823035 0.3621932
0.062379684 0.48233899 0.36182478
0.087407842 0.48239958 0.36219925
0.11239895 0.48246488 0.36271781
0.13724473 0.48246163 0.36262181
0.16242917 0.48238426 0.3618997
0.18756308 0.48257095 0.3626484
0.21259439 0.48249751 0.36247072
0.23775652 0.48244262 0.36224249
0.26297769 0.48255324 0.36250687
0.28804812 0.48249933 0.3623057
0.31250259 0.48256609 0.3624984
0.3373735 0.48263296 0.36265901
0.36306322 0.48248208 0.36190775
0.38769954 0.48253819 0.36207926
0.41267684 0.48260546 0.36268404
0.43752468 0.48249859 0.36232027
0.46235213 0.48248523 0.36205822
0.48728797 0.48252612 0.36223841
0.50583774 0.48066768 0.36295375
0.020386012 0.44269633 0.38695207
0.036716893 0.44002986 0.38786015
0.062192168 0.43960324 0.38721365
0.087151863 0.43969095 0.38712168
0.11264838 0.43968332 0.3874917
0.13799405 0.4397082 0.38733658
0.16250221 0.43984127 0.38778913
0.18748969 0.43981287 0.3877348
0.21261136 0.43965361 0.38705578
0.23747012 0.43981829 0.38752472
0.26315111 0.43964159 0.38720545
0.28837216 0.43978387 0.38775554
0.31242698 0.4395982 0.3870807
0.33752772 0.43968308 0.38743031
0.36265287 0.43984607 0.38819781
0.3875744 0.43970278 0.38748011
0.4124034 0.43959233 0.38744596
0.43752342 0.43968055 0.38730249
0.46255496 0.43965057 0.38715351
0.4871892 0.43960804 0.38758776
0.50576681 0.44300547 0.38759589
0.020076696 0.46218315 0.38730094
0.025908103 0.4612788 0.38477594
0.50639933 0.46252084 0.38742772
0.020481717 0.48152789 0.38822842
0.036764599 0.48444524 0.38755277
0.062251125 0.48466483 0.38731411
0.087558568 0.48473364 0.38772458
0.11235905 0.48473087 0.38764355
0.13756385 0.48469007 0.38745147
0.16257286 0.48474726 0.38731393
0.18745576 0.48483652 0.38730285
0.21297757 0.48477447 0.38782713
0.2376935 0.48478726 0.38709497
0.26239699 0.48486555 0.38754502
0.2875255 0.48478076 0.3871516
0.31281853 0.4848536 0.38747853
0.33764157 0.48487583 0.38747433
0.36195689 0.48479345 0.38707721
0.38761267 0.4848454 0.38761869
0.41264522 0.48482525 0.38768801
0.43757677 0.48486242 0.38744977
0.46287093 0.48486727 0.38744763
0.48787519 0.48488295 0.38774702
0.50617474 0.48218203 0.38791803
0.020490665 0.44530466 0.41155294
0.036808096 0.44444248 0.41259864
0.062273711 0.44424957 0.41221979
0.087501265 0.44426984 0.41245782
0.11188355 0.44434991 0.41269025
0.13737932 0.44430748 0.41261977
0.16248541 0.44423509 0.41271648
0.1871911 0.44411504 0.41217399
0.21201114 0.4441134 0.41216931
0.23758791 0.44423184 0.41283089
0.26236135 0.44398326 0.41202661
0.28722417 0.44418347 0.41265553
0.3122946 0.44408524 0.41255665
0.33765239 0.44389009 0.41194201
0.36308244 0.44409174 0.41286802
0.38763574 0.44382975 0.4122614
0.41227573 0.44392729 0.41237155
0.43731508 0.44386882 0.41220322
0.46242273 0.44398305 0.41273952
0.48702833 0.44372499 0.41232082
0.50566828 0.44516972 0.41157907
0.020014515 0.46225259 0.41198173
0.02604932 0.46110317 0.40988153
0.15760565 0.45019621 0.42407492
0.21150766 0.4502171 0.4235256
0.23598742 0.45040125 0.42372233
0.26828063 0.45012078 0.42284939
0.2911709 0.45048651 0.42407063
0.31860936 0.45119524 0.42449766
0.33850011 0.45056176 0.42283869
0.35928857 0.45033109 0.42279917
0.37723935 0.45041057 0.42084157
0.4109655 0.45073277 0.42214057
0.43854636 0.45111746 0.42277241
0.46544766 0.45065007 0.42304277
0.48295563 0.45096597 0.42401344
0.50626129 0.46230516 0.4123129
0.020132592 0.4828853 0.41267836
0.037084877 0.4866589 0.41225937
0.062484968 0.48698786 0.41292843
0.087920792 0.48698673 0.41237915
0.11252093 0.48707753 0.41293994
