# .PCD v0.7 - Point Cloud Data file format
VERSION 0.7
FIELDS x y z
SIZE 4 4 4
TYPE F F F
COUNT 1 1 1
WIDTH 1409
HEIGHT 1
VIEWPOINT 0 0 0 1 0 0 0
POINTS 1409
DATA ascii
0.18766716 -0.11259995 0.26277426
0.20446287 -0.11240966 0.26376998
0.31980917 -0.11259254 0.26347342
0.332683 -0.11215837 0.26364723
0.18849215 -0.087856367 0.26588896
0.20315772 -0.089179374 0.26661742
0.32002404 -0.087699302 0.26696402
0.33205798 -0.087844722 0.26726118
0.18942732 -0.063211679 0.26879621
0.20342508 -0.064844161 0.27105471
0.3201223 -0.062927119 0.26919043
0.33081487 -0.063589618 0.26979753
0.18969898 -0.041621234 0.27132243
0.20064549 -0.044012502 0.27191004
0.32030588 -0.041648295 0.27066103
0.32973814 -0.039785042 0.27216312
0.19023049 -0.37597284 0.29758671
0.2130892 -0.37617204 0.29689756
0.23859593 -0.37764782 0.29598582
0.26128012 -0.38726434 0.28946236
0.28786594 -0.37640023 0.29701945
0.31479186 -0.37634888 0.29636779
0.33328524 -0.37514257 0.29140764
0.074960798 -0.35480982 0.2940582
0.089115046 -0.35505241 0.28881112
0.11261906 -0.35539711 0.28847235
0.136834 -0.35469413 0.28843939
0.16285746 -0.35517377 0.28812388
0.18878332 -0.36207351 0.28735533
0.21304072 -0.36482161 0.28643897
0.23710127 -0.36453247 0.28597578
0.26256421 -0.36370474 0.28580907
0.28795978 -0.36416617 0.28658769
0.31278414 -0.36471477 0.2872574
0.33563691 -0.36060876 0.28821295
0.36277595 -0.35777095 0.28723553
0.38791931 -0.36030841 0.2871488
0.41300717 -0.35952491 0.28767815
0.42645669 -0.35866132 0.29089308
0.088954858 -0.33977285 0.29093739
0.11075407 -0.34095639 0.28987005
0.13766164 -0.34451488 0.28695926
0.16285191 -0.34393862 0.2879335
0.18684152 -0.33945596 0.2859056
0.21387933 -0.34213713 0.28007674
0.23836692 -0.34214661 0.2801623
0.26128146 -0.34092838 0.28317598
0.28594166 -0.3418557 0.27991718
0.31313583 -0.34237114 0.28112707
0.33577347 -0.33878884 0.28599149
0.36261672 -0.34257835 0.28783587
0.38721791 -0.34091875 0.28737965
0.41405302 -0.34170038 0.28917149
0.42691612 -0.34302023 0.29066962
0.089932725 -0.31757429 0.29312432
0.10735685 -0.31760865 0.2940172
0.17164901 -0.31472227 0.29410538
0.18626554 -0.31325668 0.29151201
0.21060753 -0.31114697 0.28826514
0.23557459 -0.313467 0.28810462
0.26470926 -0.31184345 0.28631535
0.28925624 -0.31278926 0.28678608
0.31404847 -0.31092894 0.28716487
0.33533704 -0.31449467 0.28626993
0.13384327 -0.27542803 0.29541516
0.17163873 -0.28974032 0.29424387
0.18648887 -0.28702429 0.29232109
0.21004869 -0.28539866 0.28968233
0.23491342 -0.28674671 0.28849819
0.26270172 -0.2874079 0.28753465
0.2875458 -0.29049954 0.28116399
0.31446272 -0.28726763 0.28295642
0.33702886 -0.28782734 0.29376927
0.097552828 -0.26599428 0.29739499
0.11505051 -0.26530713 0.29711923
0.13750702 -0.26087105 0.29594865
0.16341645 -0.25520876 0.29443812
0.18754745 -0.26206848 0.29216203
0.21121135 -0.26134163 0.29012021
0.2347454 -0.26166651 0.28983822
0.26189682 -0.26001266 0.28963241
0.28834006 -0.2540001 0.29736912
0.31127411 -0.26289928 0.29564804
0.33713317 -0.26143214 0.29640922
0.3640458 -0.2533088 0.29566437
0.38425443 -0.25359029 0.29597342
0.12208075 -0.23189367 0.28488019
0.13707723 -0.2366305 0.28736693
0.1609287 -0.23856987 0.28921697
0.18644567 -0.23766813 0.29171389
0.21195346 -0.23785882 0.29037863
0.23578365 -0.23730302 0.29042652
0.25756165 -0.2366519 0.29147139
0.29116693 -0.23363549 0.29508358
0.31319675 -0.23875113 0.29585189
0.33796442 -0.23864807 0.29565915
0.3650364 -0.23736475 0.29285476
0.38616839 -0.2364514 0.29021844
0.12308204 -0.20871145 0.29945457
0.13784981 -0.216564 0.29051152
0.16151667 -0.21455525 0.29239723
0.18629484 -0.21280102 0.29127678
0.21197842 -0.21100993 0.29050273
0.23939212 -0.21425335 0.29236302
0.26161426 -0.21121672 0.29411012
0.28828326 -0.21085499 0.29583773
0.31294566 -0.2109894 0.29484466
0.33580816 -0.20961137 0.29206461
0.36358291 -0.2181824 0.2949371
0.38405088 -0.21891069 0.29269087
0.18570587 -0.18794619 0.28774619
0.21049234 -0.18704297 0.29063925
0.23858322 -0.18693019 0.29384968
0.26297396 -0.18780562 0.2955519
0.2883161 -0.18698251 0.29475766
0.31419796 -0.18689108 0.28941754
0.33485553 -0.18842614 0.28774077
0.17248109 -0.16286358 0.2939876
0.18640552 -0.16406122 0.2916283
0.20963335 -0.16254516 0.28905511
0.23901494 -0.16279295 0.29453513
0.26186383 -0.1632539 0.29503593
0.28650844 -0.16256121 0.29465476
0.31401011 -0.16401447 0.29098246
0.33397147 -0.16509621 0.28791198
0.19240928 -0.13723183 0.28503993
0.20702699 -0.13665083 0.28244218
0.23273838 -0.14892632 0.2976104
0.26696599 -0.14825192 0.29781076
0.28523755 -0.14840718 0.29671824
0.31670579 -0.13881284 0.28677192
0.33242455 -0.13655852 0.28294456
0.18871687 -0.1108636 0.27956134
0.20527333 -0.11179932 0.28402323
0.3203325 -0.11170585 0.2849091
0.3332116 -0.11159178 0.28447613
0.18775958 -0.086289287 0.28218758
0.20544969 -0.086990014 0.28511804
0.32025495 -0.086198099 0.28420728
0.33274704 -0.087013587 0.28649834
0.1747289 -0.056813195 0.29469416
0.18708774 -0.06173699 0.28483242
0.20524371 -0.061227012 0.28720045
0.23391095 -0.051198006 0.29334509
0.25883862 -0.050970275 0.29672527
0.28772986 -0.050705314 0.29130575
0.32030001 -0.06184167 0.28398001
0.3325586 -0.062557869 0.28635797
0.18780997 -0.037140321 0.28702819
0.21231493 -0.035426855 0.29067352
0.23724966 -0.033971786 0.29184917
0.2624658 -0.034432489 0.29161289
0.28720886 -0.034307916 0.29171085
0.3140091 -0.035965376 0.28866035
0.33155593 -0.038034149 0.2877197
0.19091746 -0.020478815 0.29173651
0.20475858 -0.022392955 0.29351369
0.24297702 -0.024599038 0.29043013
0.25682822 -0.024641931 0.29429567
0.2841382 -0.024815511 0.29462731
0.31934881 -0.020805364 0.29303512
0.33013925 -0.020177007 0.29160333
0.16667514 -0.4535301 0.32421467
0.18702209 -0.45477915 0.32316446
0.21267223 -0.45623142 0.32234281
0.23648909 -0.45810661 0.32249644
0.26187852 -0.45736262 0.32210043
0.28671908 -0.45947656 0.32268211
0.31013021 -0.45671353 0.32293969
0.33598286 -0.45453361 0.32320794
0.36008996 -0.45426846 0.32452464
0.12196857 -0.42851514 0.32306874
0.13862868 -0.43250856 0.32200786
0.16236998 -0.43543646 0.32114819
0.18727496 -0.43640846 0.32013348
0.21240698 -0.43611053 0.31934908
0.23755926 -0.43697125 0.31893814
0.26299107 -0.43719035 0.31892756
0.28795967 -0.43686035 0.31909972
0.31264514 -0.43669128 0.31973264
0.33802885 -0.4366928 0.3205018
0.36183813 -0.43412921 0.32117626
0.38438758 -0.43179953 0.3222121
0.40493736 -0.42950374 0.32439739
0.096957184 -0.40266222 0.32230389
0.11459693 -0.41092712 0.32140046
0.1384398 -0.4124724 0.31925291
0.16257286 -0.41165584 0.31711295
0.18748289 -0.41179135 0.31598079
0.21291603 -0.4121033 0.31541681
0.23817736 -0.41248286 0.31504357
0.26234677 -0.41303745 0.31518215
0.28680533 -0.41247413 0.3156147
0.31195658 -0.41183573 0.31647366
0.33681262 -0.41196123 0.31754029
0.3616724 -0.41142997 0.31838542
0.38591531 -0.41189864 0.32008988
0.40929711 -0.40975371 0.32162288
0.094416283 -0.38544816 0.32228631
0.11349317 -0.38696125 0.31820333
0.13807423 -0.38802612 0.3144224
0.16219287 -0.38738185 0.31270778
0.18812558 -0.3872233 0.31166199
0.21225633 -0.38632578 0.31162244
0.2376211 -0.38712367 0.31111726
0.26314408 -0.38809896 0.31057715
0.28718027 -0.38686526 0.31185928
0.31181338 -0.38591805 0.31226894
0.33652139 -0.38776037 0.31321558
0.36239976 -0.38782543 0.31453657
0.38736421 -0.38801825 0.31671533
0.41035199 -0.38643184 0.32005939
0.4284654 -0.38459763 0.32328871
0.093334742 -0.36172119 0.32025588
0.11261526 -0.36266962 0.31507054
0.13767281 -0.36314896 0.31086299
0.16256355 -0.36196762 0.30906036
0.18534178 -0.36500499 0.30697435
0.21318771 -0.37252802 0.30639428
0.2378003 -0.37374118 0.30757239
0.26250803 -0.37212846 0.30697784
0.28703144 -0.37199885 0.30668435
0.31260771 -0.37247169 0.30749243
0.33880815 -0.36512518 0.30945793
0.36321941 -0.36400849 0.31061733
0.38766918 -0.36457121 0.31175378
0.41281813 -0.36143553 0.31311402
0.42804655 -0.36107939 0.316903
0.074326083 -0.34551632 0.30128199
0.092364796 -0.33784011 0.31727552
0.11050376 -0.33748561 0.31360123
0.13724925 -0.33740771 0.31037802
0.16259998 -0.33634561 0.30910605
0.18258664 -0.33785027 0.30596974
0.21481133 -0.33977687 0.3056908
0.23870909 -0.33403045 0.30189142
0.26662412 -0.33618477 0.3038815
0.28920338 -0.33919892 0.30810025
0.31677324 -0.33491725 0.30491203
0.3415412 -0.33539352 0.31019536
0.3640438 -0.33635661 0.31132939
0.38924935 -0.33709455 0.31323919
0.41341057 -0.33916107 0.31268403
0.42761853 -0.34213924 0.31128949
0.094192117 -0.31281346 0.31866664
0.11199416 -0.31226215 0.31436652
0.13748397 -0.31233457 0.31030965
0.16162153 -0.3118611 0.30904689
0.17843699 -0.31179816 0.30535808
0.21081112 -0.31697524 0.30447465
0.23597881 -0.31235993 0.30461931
0.26803839 -0.31007898 0.30445725
0.29058164 -0.30904454 0.3041147
0.31798437 -0.31275821 0.30283123
0.3410196 -0.3123928 0.30792046
0.36308736 -0.31134775 0.31317282
0.38827625 -0.31175241 0.31499726
0.41072378 -0.3119863 0.31899175
0.42842731 -0.31368628 0.32300958
0.093599886 -0.28679314 0.32216129
0.11331801 -0.28766173 0.31515938
0.13695127 -0.28783587 0.30931592
0.1618873 -0.28757879 0.30804503
0.17918859 -0.28744587 0.30506024
0.21080725 -0.28428152 0.30302081
0.23862277 -0.28668892 0.30378339
0.26335093 -0.28874293 0.30383083
0.29200467 -0.28520146 0.3034147
0.31372318 -0.2866784 0.30239367
0.34096479 -0.28682026 0.30754593
0.36305878 -0.28723422 0.31300893
0.38794404 -0.28746262 0.31381908
0.40993744 -0.28788167 0.31882054
0.42718554 -0.28833622 0.32286265
0.095064178 -0.26344407 0.31802845
0.11188468 -0.26343918 0.31239846
0.13515593 -0.26265123 0.30645636
0.16255318 -0.2641544 0.3060056
0.18136084 -0.26437932 0.30428907
0.2106566 -0.26131499 0.30359614
0.24077372 -0.26024064 0.30375385
0.26705757 -0.2614888 0.30299017
0.2910969 -0.26150897 0.30265242
0.31468433 -0.26174191 0.30234119
0.34134278 -0.26257032 0.30625471
0.36280233 -0.26216474 0.31072775
0.38860369 -0.26146504 0.31235749
0.41022417 -0.2638225 0.31879917
0.42786369 -0.26169628 0.32277071
0.095459156 -0.23734444 0.32284558
0.11386035 -0.23726317 0.3148675
0.13091917 -0.23848802 0.30822214
0.16335982 -0.23328611 0.30201483
0.18981406 -0.24158582 0.30397198
0.2100106 -0.23542729 0.30270934
0.23879366 -0.23720114 0.30370384
0.26463982 -0.23824473 0.30278021
0.28954512 -0.23838052 0.30242103
0.31414372 -0.23788908 0.30210912
0.33645654 -0.23665924 0.30209392
0.35872367 -0.23894756 0.30229285
0.38990721 -0.23814495 0.31112424
0.41042832 -0.23779958 0.31848776
0.42593974 -0.24003822 0.32442269
0.096456476 -0.21453175 0.32239115
0.11403318 -0.21254452 0.31548527
0.13454325 -0.21162134 0.30840704
0.16194448 -0.20637088 0.30629355
0.18143548 -0.20771793 0.30453721
0.21460254 -0.21143039 0.30276322
0.24109188 -0.21081367 0.30282393
0.26238567 -0.21227899 0.30244666
0.28810149 -0.21272102 0.30229312
0.3125098 -0.21416081 0.30176973
0.33873397 -0.21062246 0.30482036
0.36264762 -0.20896386 0.30665353
0.38890579 -0.21210885 0.31165633
0.4097538 -0.21336973 0.31967139
0.4256433 -0.21412861 0.32420987
0.098506495 -0.19195318 0.32358456
0.11476932 -0.18836275 0.31689575
0.1354225 -0.18772595 0.31059825
0.1618474 -0.18723825 0.30827472
0.17957044 -0.1870594 0.30763224
0.21776786 -0.18525575 0.3022759
0.23978338 -0.18632104 0.30240139
0.26292816 -0.18720463 0.30194494
0.28591886 -0.18623181 0.30183458
0.31132495 -0.18200238 0.30160987
0.34223187 -0.18791096 0.30896232
0.36312973 -0.187565 0.31375706
0.38947195 -0.18761317 0.3154268
0.40869981 -0.18778117 0.32089028
0.098161235 -0.16969544 0.32498306
0.11662687 -0.16353661 0.31895781
0.13635372 -0.162613 0.31240281
0.16237715 -0.16209432 0.30885527
0.18244094 -0.16055819 0.30690721
0.21357141 -0.16034198 0.30413148
0.23956417 -0.15884987 0.30433229
0.26315674 -0.15802254 0.3042233
0.28814352 -0.15713656 0.30402797
0.3128418 -0.15660796 0.30452144
0.33995402 -0.16175282 0.30849361
0.36280459 -0.16170299 0.31405145
0.38854486 -0.16324851 0.31655845
0.40779537 -0.16502135 0.32212582
0.12056018 -0.14073767 0.31941098
0.13795935 -0.13754463 0.31505331
0.16181855 -0.13740551 0.31052113
0.18666247 -0.13811643 0.31040949
0.21302834 -0.13776259 0.31140542
0.23888689 -0.13820164 0.31218237
0.26339808 -0.1382837 0.31153974
0.28668347 -0.1381716 0.3120271
0.31184247 -0.1387163 0.31218469
0.33836824 -0.13800882 0.31354266
0.36323598 -0.13714209 0.31556869
0.3864072 -0.13896544 0.31860977
0.40127015 -0.13746363 0.32091609
0.14067119 -0.11983397 0.31947705
0.16302824 -0.11549067 0.31639862
0.18661836 -0.11380584 0.31434429
0.21302006 -0.1127011 0.31545436
0.23844121 -0.11245503 0.31584492
0.26270464 -0.11247097 0.31633601
0.28674227 -0.11233898 0.31610024
0.31210729 -0.11309237 0.31661275
0.33765402 -0.1148358 0.31801635
0.36148331 -0.11859986 0.31865394
0.37969318 -0.1201602 0.32103512
0.19241768 -0.093699545 0.30109811
0.20557287 -0.092422247 0.31079227
0.23220578 -0.097129837 0.32289103
0.25851336 -0.0987188 0.32079116
0.29316798 -0.098843038 0.32138601
0.31860644 -0.085362732 0.30464938
0.33237064 -0.085511565 0.30570981
0.17341518 -0.053278446 0.32483959
0.18668093 -0.055044919 0.31238186
0.20721285 -0.057828788 0.30717343
0.24069807 -0.050923713 0.31121355
0.26547983 -0.050868694 0.30693653
0.28657457 -0.050810855 0.31100652
0.31908765 -0.059002895 0.30928129
0.33249959 -0.058198944 0.30975324
0.17394333 -0.041457679 0.32053122
0.18660381 -0.035718136 0.31287789
0.213668 -0.033243343 0.31343651
0.23759837 -0.032094054 0.31288528
0.26290914 -0.031751979 0.31257266
0.28717315 -0.031863526 0.31286889
0.31180853 -0.033261944 0.31284103
0.33265263 -0.036771383 0.31252539
0.18963319 -0.020493856 0.31039786
0.20616922 -0.020942038 0.30842224
0.23909912 -0.02481485 0.30499429
0.25783068 -0.024888873 0.30243564
0.27676377 -0.024638869 0.30183357
0.31855693 -0.020148594 0.31099033
0.32962766 -0.019893954 0.31101668
0.16902642 -0.47577229 0.34203407
0.19007739 -0.47670937 0.34124249
0.21290851 -0.47883353 0.34004927
0.23779456 -0.479996 0.33978683
0.26283127 -0.4804053 0.3395752
0.28721079 -0.47979134 0.33916962
0.31154865 -0.47780201 0.34044078
0.33286384 -0.47640651 0.3412278
0.098859154 -0.45142093 0.34271666
0.11433557 -0.45545107 0.34131166
0.13835917 -0.46094498 0.33822632
0.16235894 -0.46474066 0.33619547
0.18669626 -0.46547207 0.33417204
0.21256875 -0.46427673 0.33227131
0.23707826 -0.4646619 0.33114022
0.26257715 -0.46401438 0.3316386
0.2875537 -0.46311444 0.33173719
0.31363541 -0.46470207 0.33344543
0.33762249 -0.46561608 0.33597597
0.36222777 -0.46308452 0.33755291
0.38619536 -0.45885226 0.33963576
0.40635553 -0.45451537 0.34252459
0.07346791 -0.42642742 0.34510767
0.091239102 -0.43536001 0.34068248
0.11312963 -0.43853682 0.3344444
0.13606061 -0.4390834 0.33133191
0.16137712 -0.44088304 0.3300446
0.18782629 -0.43931562 0.32920226
0.21276535 -0.43940213 0.32887855
0.23796037 -0.44146222 0.32888561
0.2617197 -0.43959096 0.32888106
0.28812617 -0.44028825 0.32911819
0.31306297 -0.43887156 0.32885781
0.33814183 -0.43930522 0.32998827
0.3630552 -0.43831676 0.33075944
0.388762 -0.43849066 0.33309922
0.41246545 -0.43746698 0.33825806
0.43108201 -0.43280119 0.3431856
0.072441205 -0.40892005 0.34360486
0.087403737 -0.41232726 0.33651474
0.11025617 -0.41456813 0.33085018
0.13630992 -0.41464138 0.32916054
0.16139099 -0.4158971 0.32792383
0.18765959 -0.41652828 0.32715905
0.21045226 -0.41732809 0.32657862
0.23652305 -0.41915953 0.3264955
0.26280728 -0.41713199 0.32614559
0.28805944 -0.41807505 0.32643515
0.31318665 -0.41726455 0.32669067
0.33809161 -0.41838235 0.32733658
0.36503103 -0.41628519 0.32808706
0.38895091 -0.41359684 0.32916999
0.41434401 -0.41374689 0.33317325
0.43513668 -0.4118605 0.34099036
0.071187556 -0.38812396 0.34334782
0.085500315 -0.38741818 0.33563045
0.10937003 -0.39107692 0.32829922
0.13884056 -0.3947219 0.32612857
0.15942243 -0.39808562 0.32602948
0.35722968 -0.39193624 0.32526937
0.38960284 -0.39478251 0.32692865
0.41496187 -0.38889945 0.33051747
0.43654695 -0.38774946 0.33928752
0.45095488 -0.38613784 0.34644461
0.071167909 -0.36348599 0.34319797
0.084865779 -0.3617616 0.33499289
0.10797414 -0.36721015 0.32738915
0.41647276 -0.36266562 0.33017576
0.43635094 -0.36234921 0.33927277
0.4511078 -0.36458936 0.34627783
0.072094709 -0.33914009 0.34351861
0.084916584 -0.33762228 0.33571237
0.1071546 -0.33624497 0.32850263
0.39833656 -0.34728199 0.32537827
0.41751984 -0.33659592 0.33028886
0.43591297 -0.33727625 0.33919674
0.45041054 -0.33338848 0.34530705
0.07168176 -0.31428722 0.34458852
0.084583811 -0.3127183 0.33644411
0.10341594 -0.31149855 0.3297458
0.39984739 -0.31446201 0.32585391
0.41756621 -0.3121669 0.33063263
0.43490642 -0.31231532 0.33914262
0.4503282 -0.31270301 0.34683907
0.072259255 -0.28728598 0.34509987
0.086334862 -0.28753 0.33624312
0.10512927 -0.28756696 0.32837716
0.39762187 -0.28870976 0.32549727
0.41674751 -0.2877019 0.33095333
0.43355408 -0.28735662 0.33880395
0.072936051 -0.26647857 0.34615502
0.086885564 -0.26254749 0.33694345
0.1050589 -0.26061901 0.3294785
0.41617045 -0.26125792 0.33141199
0.43281946 -0.26246604 0.3400484
0.073579207 -0.24245727 0.34736437
0.088063732 -0.23757266 0.33784395
0.10649584 -0.23733726 0.32959238
0.3987343 -0.2348112 0.32650611
0.41589281 -0.23646037 0.33163753
0.43158713 -0.23758386 0.3398408
0.089328334 -0.21295439 0.33846194
0.10584999 -0.21278028 0.33017945
0.39875039 -0.21177439 0.32622397
0.41567013 -0.21190822 0.33326045
0.43034592 -0.21394199 0.34035161
0.091853686 -0.18762766 0.33898115
0.10647425 -0.18613939 0.33178806
0.39742416 -0.18467996 0.32792264
0.41472071 -0.18704434 0.3353475
0.42999586 -0.18894508 0.34393933
0.094575457 -0.1638988 0.34093753
0.10772281 -0.1614029 0.33428299
0.12729639 -0.15324347 0.32659009
0.39615059 -0.15845722 0.32856199
0.41276973 -0.16228023 0.33656475
0.42771932 -0.16463299 0.34525213
0.096886449 -0.14317963 0.34521088
0.11208028 -0.13745064 0.3368654
0.12950985 -0.1337958 0.33054394
0.37164882 -0.12620008 0.3267076
0.3919428 -0.13390696 0.33241642
0.40895325 -0.13905281 0.3400459
0.42619187 -0.14873031 0.3442021
0.11869864 -0.11921256 0.34070712
0.1373986 -0.11309762 0.33741131
0.1607002 -0.10683229 0.33427683
0.18581197 -0.10407692 0.33111697
0.20971921 -0.10338597 0.32962289
0.23923263 -0.10251714 0.3277953
0.26245469 -0.10174668 0.32858175
0.28660196 -0.10235928 0.32812741
0.31400374 -0.10436019 0.33056286
0.33977216 -0.10565837 0.33301565
0.36377195 -0.10949953 0.33587939
0.38619867 -0.11593758 0.33888298
0.40421033 -0.12148695 0.34404424
0.14850131 -0.099080205 0.34400156
0.16664556 -0.096732356 0.34322137
0.18830225 -0.096396945 0.3380743
0.21221541 -0.094437554 0.33921534
0.23720586 -0.093772925 0.33737615
0.26276594 -0.093239993 0.33871856
0.28734177 -0.093875811 0.33825952
0.31223261 -0.095237285 0.34020665
0.33643454 -0.096389011 0.34323147
0.35804784 -0.09760689 0.34407187
0.14812943 -0.062233318 0.34707326
0.16385601 -0.059659187 0.34131813
0.18381143 -0.05661121 0.33643651
0.2097123 -0.052694619 0.34167442
0.23548995 -0.054156926 0.34499067
0.26484138 -0.054031014 0.34571877
0.28869808 -0.053022932 0.34593466
0.31556258 -0.053918924 0.34307912
0.33908671 -0.056380089 0.33851799
0.35776401 -0.059324872 0.34401488
0.16764382 -0.042420082 0.34077528
0.18608311 -0.038002227 0.33622035
0.21297383 -0.03999389 0.33635005
0.23754802 -0.039517254 0.33688486
0.26276875 -0.039000709 0.33620358
0.28744277 -0.039500143 0.33637023
0.31147209 -0.039968871 0.33613393
0.33625817 -0.0386746 0.33709866
0.35419014 -0.044597384 0.3442136
0.18896078 -0.021885678 0.32902986
0.32237065 -0.022613425 0.32969671
0.33164662 -0.022098428 0.32702178
0.16834158 -0.47632584 0.35596231
0.18923245 -0.47701746 0.35760492
0.21262999 -0.47887629 0.35908896
0.23826197 -0.48014492 0.35994589
0.26271379 -0.48032972 0.35954428
0.28697097 -0.47998133 0.35941166
0.31118509 -0.478046 0.35873413
0.33272555 -0.4763622 0.35681254
0.35287759 -0.47536457 0.35970274
0.09914048 -0.4525708 0.35253909
0.11509179 -0.4556739 0.36038744
0.13758835 -0.46158504 0.36185345
0.16181253 -0.46595824 0.36387637
0.18640655 -0.46738204 0.36552593
0.21137331 -0.46556666 0.36899748
0.23714653 -0.46485084 0.36992681
0.26277468 -0.46540272 0.36994678
0.28746665 -0.46528506 0.36909315
0.31349757 -0.46616575 0.36808434
0.33787218 -0.46787903 0.36481482
0.36256909 -0.46542817 0.36310825
0.38750917 -0.45937318 0.36116666
0.40751946 -0.45340264 0.35960972
0.072898574 -0.42693573 0.35453507
0.08981099 -0.4358916 0.36123204
0.11050023 -0.441039 0.36693251
0.13631031 -0.44105557 0.37176099
0.16122076 -0.44240949 0.37284315
0.18922816 -0.43824372 0.37288618
0.21248496 -0.43917316 0.37279996
0.23699544 -0.43864372 0.37281278
0.26253188 -0.4382585 0.37282604
0.28771675 -0.43810603 0.37264729
0.31423792 -0.43823889 0.37273917
0.33862653 -0.4396067 0.37307966
0.36293381 -0.44039428 0.37257335
0.38928092 -0.44113457 0.37114245
0.41481629 -0.44076157 0.36454985
0.4315421 -0.43278682 0.36034137
0.072125271 -0.41017008 0.35941011
0.083999276 -0.41364878 0.36461505
0.10944634 -0.41399789 0.37322378
0.13634932 -0.40898359 0.37375563
0.16338357 -0.41361159 0.37384424
0.18746711 -0.41049361 0.37362731
0.21260379 -0.41141266 0.37292951
0.23591042 -0.41294685 0.37267214
0.26315853 -0.41276598 0.37267742
0.28864375 -0.41307598 0.37248862
0.31255701 -0.41132903 0.3734093
0.3349086 -0.41138425 0.37372676
0.35975921 -0.41402161 0.37378305
0.39226669 -0.4148578 0.37362301
0.41645795 -0.41387379 0.37158713
0.43755168 -0.41274345 0.36317116
0.45074356 -0.40160096 0.35934004
0.070861883 -0.38777685 0.360782
0.082623132 -0.38799456 0.36598518
0.1076245 -0.38628408 0.37357411
0.13572106 -0.38344347 0.37413386
0.16337152 -0.38544986 0.37346303
0.19025984 -0.38794491 0.37337691
0.21256396 -0.38589057 0.37239435
0.2366408 -0.3872574 0.37241125
0.26354212 -0.3869898 0.37252811
0.28654334 -0.38744143 0.372361
0.31168923 -0.38858774 0.37294611
0.3357127 -0.38589033 0.37335065
0.3570132 -0.38797918 0.37327951
0.38594812 -0.39027661 0.37436551
0.4158107 -0.39014697 0.37338692
0.44079334 -0.38792247 0.36341292
0.45080474 -0.38510454 0.35629076
0.070572726 -0.36268181 0.3608754
0.082522631 -0.36177081 0.3660396
0.10796187 -0.36111394 0.37348151
0.13719785 -0.35896677 0.37382185
0.16357933 -0.35981008 0.37328032
0.18706821 -0.36249897 0.37269688
0.21095578 -0.36278662 0.37236291
0.23737657 -0.36329794 0.37210625
0.26285371 -0.36171713 0.37222239
0.28775403 -0.36183867 0.37213179
0.31171846 -0.36252931 0.37262848
0.33752418 -0.36116704 0.37343282
0.35807076 -0.36394703 0.37330973
0.38704169 -0.36322832 0.37388137
0.41617265 -0.36235759 0.37321746
0.44080123 -0.36278489 0.36400488
0.45093676 -0.35968831 0.35793251
0.070595011 -0.33781716 0.36031413
0.082644776 -0.33698574 0.36532053
0.10936642 -0.33693218 0.37362197
0.13739048 -0.33602464 0.37403572
0.16405128 -0.33655986 0.37321147
0.18818286 -0.33751881 0.37270001
0.21128546 -0.33809704 0.37199309
0.23790704 -0.33706981 0.37155163
0.26404297 -0.33592308 0.37184334
0.28705281 -0.33554685 0.3715018
0.31132886 -0.33639115 0.37230948
0.33527112 -0.3368763 0.37316447
0.35988259 -0.33894715 0.37324783
0.38950172 -0.33309069 0.37402579
0.41422388 -0.33821902 0.37366724
0.44065186 -0.33817014 0.36287239
0.45079574 -0.33871889 0.36041352
0.071391299 -0.31239536 0.36049217
0.082849085 -0.31247625 0.36508015
0.11025693 -0.31118208 0.37366077
0.13914737 -0.31365114 0.37377474
0.16418891 -0.31337476 0.37268636
0.18729152 -0.31323442 0.37245557
0.21162066 -0.31311911 0.37150213
0.23771907 -0.31083125 0.37127253
0.26305482 -0.31178963 0.37180063
0.28673023 -0.31142473 0.3711952
0.31135383 -0.31210411 0.37191215
0.33567873 -0.31198958 0.37270811
0.36097077 -0.31396118 0.37291402
0.39048436 -0.30925158 0.37406552
0.41343102 -0.31542569 0.37321895
0.4397907 -0.31249961 0.36318472
0.45060703 -0.32224837 0.361974
0.071956255 -0.28789097 0.3606323
0.083122112 -0.28699416 0.3647455
0.10991934 -0.28777921 0.37343922
0.13911691 -0.288057 0.37369671
0.16351657 -0.28721482 0.37313947
0.18667667 -0.28701684 0.37259856
0.21241303 -0.28792429 0.37150371
0.23758009 -0.28594929 0.37128964
0.26281744 -0.28765109 0.37162688
0.28646147 -0.28780374 0.3712329
0.31183442 -0.28821525 0.37195107
0.33611596 -0.28708971 0.37285072
0.36199653 -0.28893054 0.37335318
0.38647017 -0.2870827 0.37428179
0.41659477 -0.28769356 0.37315369
0.43834725 -0.28733563 0.36265522
0.072724834 -0.26424855 0.35954735
0.08418107 -0.26226893 0.3643944
0.10997885 -0.26187405 0.3732979
0.13866155 -0.26251295 0.3739557
0.16275261 -0.26112697 0.37319696
0.18676336 -0.26180041 0.37233701
0.21225633 -0.26228133 0.37125146
0.23788475 -0.26117963 0.37109655
0.26293364 -0.26246437 0.37140203
0.28680643 -0.26331076 0.37117785
0.31138885 -0.26354742 0.37193221
0.33673039 -0.26213613 0.37304363
0.36188623 -0.26385128 0.37334466
0.38478196 -0.26443663 0.37449539
0.41769698 -0.26224378 0.37239528
0.43702459 -0.2629225 0.3620418
0.073185243 -0.24084271 0.35690761
0.084427118 -0.23767205 0.36273929
0.11017139 -0.23794842 0.37312475
0.13659286 -0.23771633 0.37391716
0.1619979 -0.23793474 0.37334463
0.18717749 -0.23694474 0.3726261
0.21162599 -0.23739414 0.37164858
0.23785248 -0.23718677 0.3713142
0.26355013 -0.23826624 0.3716436
0.28682834 -0.23833148 0.37152651
0.31135225 -0.2386059 0.37202388
0.33569551 -0.23822129 0.3730557
0.36049625 -0.2384081 0.37328169
0.38442054 -0.23868556 0.37426582
0.41825455 -0.2365201 0.3715865
0.43498209 -0.23772153 0.36182714
0.086252183 -0.21312775 0.36262473
0.11013301 -0.21199018 0.37259042
0.13716926 -0.2118237 0.37403831
0.1616302 -0.21392466 0.37358025
0.18650986 -0.21202822 0.37302703
0.21066999 -0.21274592 0.37186694
0.23787466 -0.21194856 0.37177515
0.26459798 -0.21278335 0.37181699
0.28801739 -0.21425107 0.37166044
0.31124616 -0.21268971 0.37256563
0.33654794 -0.21211159 0.37315235
0.35952082 -0.21541961 0.37349284
0.387274 -0.21592426 0.37400728
0.41900796 -0.2107397 0.36755759
0.43279126 -0.21231747 0.36155179
0.088727906 -0.18779302 0.36176389
0.10973468 -0.18628567 0.37198117
0.13641225 -0.18714753 0.37375835
0.16142814 -0.18989091 0.37405106
0.18845998 -0.18778309 0.37298039
0.21150905 -0.18974267 0.37232339
0.23784927 -0.18876405 0.37226397
0.26445606 -0.18942036 0.37221998
0.28721395 -0.18937607 0.37212551
0.31236836 -0.18854891 0.37295961
0.33909699 -0.18827924 0.37375507
0.36097434 -0.19055481 0.37360159
0.38965839 -0.18957016 0.37387472
0.41912249 -0.18602444 0.36509538
0.43081355 -0.18724099 0.36092681
0.092381157 -0.16350532 0.36035493
0.10923413 -0.15966146 0.36712772
0.13410634 -0.15897566 0.373151
0.16158549 -0.16398072 0.37383759
0.1887981 -0.16257335 0.37350971
0.21495405 -0.16419369 0.37336096
0.23718436 -0.16425703 0.37322053
0.26572639 -0.16544524 0.37301353
0.28700051 -0.16587332 0.37297121
0.31101328 -0.16524495 0.37348026
0.33759612 -0.16281429 0.37407121
0.35947061 -0.16561335 0.37378886
0.38678533 -0.1618491 0.37348154
0.41759151 -0.16092829 0.36332491
0.42841923 -0.16482924 0.36038515
0.096597306 -0.1416017 0.35926673
0.10975648 -0.13693796 0.36186126
0.13495742 -0.13643429 0.37179551
0.16124256 -0.13440695 0.37331116
0.18793029 -0.13670199 0.37342584
0.2178361 -0.13389023 0.37325925
0.23739663 -0.13576798 0.37379611
0.26793957 -0.13743448 0.37291056
0.28742686 -0.13724072 0.37354401
0.31388772 -0.13960771 0.37358215
0.33933955 -0.13629827 0.37353024
0.36084333 -0.13820855 0.3730683
0.39110264 -0.13564137 0.37022471
0.41190898 -0.13780126 0.36259434
0.42661425 -0.14691319 0.35517216
0.11738462 -0.1191648 0.35951832
0.13701829 -0.11088458 0.36024058
0.15939106 -0.10620624 0.36318409
0.18781078 -0.11250475 0.37233952
0.20966178 -0.11464497 0.37169409
0.23660569 -0.11261246 0.37240428
0.26145861 -0.10982507 0.37206754
0.28757402 -0.11580406 0.37257412
0.31225672 -0.11586887 0.37217692
0.33571163 -0.11002128 0.36902761
0.3655805 -0.10496116 0.36309379
0.38815355 -0.11220957 0.36165807
0.4046956 -0.12067276 0.36093682
0.12104361 -0.080288418 0.37258628
0.13762417 -0.079449475 0.36710975
0.16091315 -0.087808177 0.36212409
0.18618098 -0.091867909 0.36140275
0.21169092 -0.088270091 0.36276513
0.23835187 -0.085312426 0.36144036
0.26510519 -0.088959657 0.360562
0.28866193 -0.087973244 0.36130595
0.31390485 -0.092658974 0.35883597
0.33951989 -0.093957275 0.3606132
0.36085263 -0.090927534 0.3627874
0.38177294 -0.079392523 0.36951625
0.12185115 -0.068449475 0.37165049
0.14002165 -0.061973639 0.36397043
0.16137606 -0.061339013 0.36193299
0.1877393 -0.060473863 0.36342254
0.21178414 -0.058958273 0.36379015
0.23763415 -0.058247365 0.36406371
0.26252475 -0.058337487 0.36473489
0.287413 -0.058677793 0.36438337
0.31275517 -0.058515016 0.36421156
0.33673981 -0.061718594 0.3632006
0.36374998 -0.060173098 0.36191675
0.3818177 -0.062266652 0.36845729
0.14584374 -0.048174709 0.36139467
0.16423862 -0.045421056 0.35674733
0.18846273 -0.044072632 0.35379109
0.2137453 -0.047113348 0.3558352
0.23854691 -0.046093836 0.35574782
0.2632156 -0.046147909 0.35530427
0.28685752 -0.046598315 0.3564693
0.30951902 -0.047263626 0.35507244
0.3412675 -0.043055233 0.3549636
0.35873991 -0.046238672 0.35896799
0.37828976 -0.049553156 0.36437196
0.26139009 -0.47555813 0.37600005
0.29429331 -0.47550976 0.37505478
0.12315118 -0.45443481 0.37753639
0.13941321 -0.45432445 0.37817749
0.16362977 -0.45654771 0.37983075
0.18791386 -0.45918524 0.37931874
0.21299538 -0.4602319 0.37967992
0.23722591 -0.46136391 0.37953132
0.26126203 -0.46031401 0.37964785
0.28669438 -0.4609724 0.37973711
0.31170866 -0.4595829 0.37967458
0.33715436 -0.45821744 0.37925082
0.36153474 -0.45614403 0.37920353
0.38147295 -0.4536404 0.37731901
0.094745651 -0.42919949 0.37834853
0.11414716 -0.43624622 0.37985584
0.13783522 -0.43679449 0.38132834
0.16208872 -0.43743724 0.38209018
0.1871988 -0.43751669 0.38225594
0.21159253 -0.43752667 0.38213238
0.23665912 -0.43754503 0.38225985
0.26171726 -0.4372783 0.38223946
0.28657398 -0.43737328 0.38207713
0.31183636 -0.43769056 0.38243121
0.33704734 -0.4372974 0.38289237
0.3616339 -0.43718898 0.38244438
0.3868635 -0.43731013 0.38130352
0.40991497 -0.43384963 0.37927252
0.42755508 -0.42868933 0.37766823
0.090451866 -0.41124117 0.37985468
0.11296254 -0.41341022 0.38275608
0.13690256 -0.41273758 0.3834607
0.1619648 -0.41318429 0.38338065
0.18651511 -0.41261286 0.38310432
0.21150289 -0.4132936 0.38247344
0.23738603 -0.41349906 0.38207665
0.26179999 -0.41311824 0.3821103
0.28694358 -0.4132385 0.38198456
0.31224963 -0.41268122 0.3829737
0.33754423 -0.41294676 0.38359246
0.36215943 -0.41265213 0.38455537
0.38736495 -0.41325143 0.384599
0.41184303 -0.41197392 0.38239706
0.4308944 -0.41131341 0.37896037
0.072916992 -0.38649777 0.37705052
0.090461344 -0.38804173 0.38112468
0.11287735 -0.38815585 0.3832095
0.13675022 -0.38810161 0.38377991
0.16214344 -0.38765281 0.38310146
0.1870261 -0.38785514 0.38261527
0.21159616 -0.3880665 0.38162494
0.23659223 -0.38876078 0.38157952
0.26131698 -0.38842961 0.3818078
0.28685412 -0.38817996 0.38182113
0.31181502 -0.38707873 0.38224629
0.33715415 -0.38741705 0.38338271
0.36223572 -0.38790289 0.38409233
0.3874588 -0.38825727 0.38520795
0.41247788 -0.38769451 0.38349846
0.43233997 -0.38729763 0.37972721
0.073103666 -0.36217579 0.37754968
0.090163775 -0.36297601 0.38130158
0.11311344 -0.36285034 0.38299054
0.13728794 -0.36264619 0.38310826
0.16214064 -0.36296627 0.38303012
0.18712449 -0.36249822 0.38199744
0.2124612 -0.36196265 0.3814092
0.23769102 -0.36328113 0.38107219
0.26183927 -0.36296719 0.38100106
0.28653404 -0.36271974 0.38128501
0.31199858 -0.3622722 0.38157496
0.33665535 -0.36284676 0.38274166
0.3618806 -0.36268768 0.38377598
0.38757092 -0.3626045 0.38484079
0.41252598 -0.3628428 0.38306099
0.43282241 -0.36286825 0.37999529
0.072490171 -0.33452338 0.37679952
0.089283235 -0.33753121 0.38072363
0.1125935 -0.33768374 0.38278669
0.13694102 -0.33718851 0.38313723
0.16215406 -0.3377347 0.3826648
0.18657891 -0.33748519 0.38140765
0.21221107 -0.33675346 0.38082793
0.23748845 -0.33708566 0.3805559
0.26173839 -0.33709243 0.38031617
0.2867299 -0.33761379 0.38067156
0.31194323 -0.33722436 0.38136038
0.3371318 -0.33795756 0.38242051
0.36192816 -0.33722073 0.38325933
0.38758615 -0.33747581 0.3846994
0.41266903 -0.33784071 0.38338137
0.43236843 -0.33815259 0.38034528
0.074199155 -0.31399095 0.37658906
0.090633735 -0.31252787 0.38086048
0.11280098 -0.31291839 0.38285631
0.13712646 -0.3121751 0.38271183
0.16197205 -0.31213969 0.38251901
0.18675563 -0.31200278 0.38112554
0.21159349 -0.31233332 0.38056561
0.23754174 -0.31201953 0.38046274
0.26180455 -0.31206298 0.38009301
0.28710911 -0.31228936 0.38026428
0.31247368 -0.31240949 0.3809247
0.3372393 -0.31262302 0.38201213
0.36211807 -0.31189916 0.38292703
0.38732827 -0.31298995 0.3845017
0.4124223 -0.31253713 0.38306805
0.43207791 -0.31235346 0.37958759
0.090595543 -0.28815293 0.38053703
0.11342432 -0.28777796 0.38240153
0.13738088 -0.28770319 0.38234684
0.16179228 -0.28693432 0.38237041
0.1866677 -0.28714991 0.38121742
0.21202889 -0.28765079 0.3806071
0.2376205 -0.28753147 0.38024411
0.26227555 -0.28740284 0.38018638
0.28739682 -0.28751674 0.38022459
0.31187314 -0.28773034 0.3810896
0.33692566 -0.28771549 0.38211179
0.36237994 -0.2869795 0.38291118
0.38712075 -0.28778943 0.3840715
0.41142675 -0.28749228 0.38303331
0.43148667 -0.28784248 0.37893248
0.091075003 -0.26293314 0.38027331
0.11319592 -0.2628389 0.38260311
0.13661788 -0.26273176 0.3826263
0.16200735 -0.2620053 0.38257447
0.18667436 -0.26207691 0.38096869
0.21195222 -0.26292726 0.3804315
0.23824778 -0.2625818 0.38037604
0.26237977 -0.26233029 0.37998095
0.28785691 -0.26284412 0.3803027
0.31162247 -0.26185429 0.38084564
0.3362636 -0.26224512 0.38222176
0.36242613 -0.26187044 0.38345394
0.38772434 -0.26243213 0.3839727
0.41171491 -0.26210076 0.38265151
0.43045464 -0.26333469 0.3787497
0.091500089 -0.23770323 0.3799988
0.1129356 -0.23819268 0.38221937
0.13702737 -0.23782711 0.38251737
0.16173533 -0.23722486 0.38289452
0.1868196 -0.23707281 0.38145947
0.21256764 -0.23847206 0.3806597
0.23813723 -0.23727968 0.3801803
0.26174176 -0.23740536 0.38026136
0.28713518 -0.23772027 0.38037279
0.31274632 -0.23643701 0.38126373
0.33645085 -0.23739225 0.38211733
0.36181453 -0.23748039 0.38338497
0.38823777 -0.23737203 0.3838664
0.41250718 -0.2374247 0.38229272
0.42925525 -0.23896229 0.37826878
0.091295518 -0.21341856 0.37894428
0.11332463 -0.21341412 0.3824214
0.13715211 -0.21284488 0.38272965
0.16149488 -0.21240082 0.38297155
0.18677914 -0.21198218 0.38176265
0.21281143 -0.21235962 0.38131958
0.23808795 -0.21261135 0.38063872
0.26130939 -0.21179174 0.38050818
0.28713962 -0.21209545 0.38080871
0.31230783 -0.21216035 0.3821224
0.33661312 -0.21294212 0.38262039
0.36250067 -0.21269639 0.38384727
0.3886191 -0.21282877 0.38401565
0.4120242 -0.21308254 0.38148504
0.42859837 -0.21385451 0.37788391
0.092754878 -0.18969706 0.3777706
0.11335669 -0.18866649 0.38188288
0.13688126 -0.18799393 0.38224524
0.16119964 -0.18756561 0.38344663
0.18685928 -0.18735847 0.38220561
0.212975 -0.1872953 0.38175866
0.23790188 -0.18759418 0.38115862
0.26127332 -0.18701936 0.3811807
0.28748822 -0.1872827 0.38156801
0.31246364 -0.18739071 0.38223755
0.33647779 -0.18803228 0.38295668
0.36228105 -0.18755813 0.38380674
0.38756844 -0.18799348 0.38392356
0.41156963 -0.18769173 0.38086024
0.42747781 -0.1889428 0.37692407
0.09530282 -0.16401127 0.37814882
0.11319558 -0.16424476 0.38107401
0.13668618 -0.16399457 0.38239574
0.16126327 -0.16293663 0.38324553
0.1872516 -0.1625699 0.38261136
0.21220058 -0.1626879 0.382709
0.23688801 -0.16245639 0.38158038
0.26125187 -0.16262804 0.38258865
0.28727099 -0.16244468 0.38245961
0.31212354 -0.16248702 0.3831583
0.33670312 -0.1632911 0.38385314
0.36278918 -0.16277832 0.38433024
0.38743427 -0.16306713 0.38320833
0.40905666 -0.16320528 0.38011709
0.11314515 -0.1395043 0.37969467
0.13734326 -0.13944843 0.3818883
0.16154443 -0.1395665 0.38328412
0.18702388 -0.13849139 0.3831538
0.21280709 -0.13843499 0.3832393
0.23715292 -0.13818127 0.38302144
0.2622411 -0.13764316 0.38364413
0.28803387 -0.13868034 0.38311434
0.3119899 -0.13819414 0.38353968
0.33625385 -0.13865988 0.38330069
0.36163598 -0.1390727 0.38373098
0.38755038 -0.13799663 0.38157886
0.40617168 -0.14200938 0.37853596
0.093744695 -0.10242712 0.39941645
0.11342424 -0.10223936 0.39882582
0.13721667 -0.11545822 0.38253295
0.16216433 -0.11513063 0.38188994
0.18657327 -0.11389792 0.38177717
0.21146764 -0.11512896 0.38301703
0.23734687 -0.11496391 0.38116854
0.26136294 -0.1138613 0.3812854
0.28689337 -0.11549111 0.38196284
0.31222582 -0.11341993 0.38126481
0.33591902 -0.11354946 0.3811346
0.36172339 -0.11580236 0.38034299
0.38366032 -0.11833493 0.37807429
0.40220565 -0.12457457 0.37560457
0.096025869 -0.08871714 0.39793712
0.11313341 -0.085143425 0.390643
0.13742886 -0.084552355 0.389366
0.16260409 -0.083232902 0.39031303
0.18713275 -0.082487367 0.39039046
0.2126364 -0.08257176 0.39073062
0.23843147 -0.083280109 0.39050907
0.26296154 -0.082340069 0.39052734
0.28758278 -0.082270548 0.39094338
0.31327552 -0.082548738 0.39112234
0.3378635 -0.081494331 0.39081264
0.36222261 -0.081879877 0.39022321
0.38763234 -0.082827754 0.38957739
0.40717545 -0.083060384 0.39465436
0.1175902 -0.070420235 0.38727728
0.13477191 -0.065951169 0.38352373
0.16329376 -0.070009105 0.38275692
0.18708296 -0.069380611 0.38390401
0.21237954 -0.068286888 0.3845844
0.23728488 -0.067918323 0.38417026
0.26280013 -0.068267189 0.38521761
0.28762305 -0.068028763 0.38475567
0.31317693 -0.068446025 0.38414565
0.33767369 -0.069890417 0.38396654
0.363188 -0.066952206 0.38158074
0.38781622 -0.066910766 0.3851864
0.40660334 -0.071408287 0.39248437
0.071895771 -0.10269241 0.41974279
0.088343441 -0.10695778 0.41656646
0.11194352 -0.10623271 0.41365823
0.13660248 -0.10675718 0.41568279
0.16180351 -0.10643073 0.41498101
0.18680038 -0.10660049 0.414601
0.21274965 -0.10664596 0.41596603
0.23784512 -0.10547552 0.41490886
0.26349539 -0.10542217 0.41523403
0.2880466 -0.10561435 0.41612521
0.31256655 -0.10507552 0.41683134
0.33817863 -0.10451372 0.41640943
0.36269104 -0.10479594 0.41628143
0.38823792 -0.10414682 0.41649967
0.412965 -0.10466845 0.41862068
0.43319064 -0.10339926 0.42018068
0.45060545 -0.10032082 0.42010713
0.071447544 -0.093202464 0.41760057
0.088873707 -0.090609536 0.41381425
0.11166875 -0.088313356 0.4109638
0.13741593 -0.090243258 0.41159335
0.16283068 -0.0902192 0.41118252
0.18795465 -0.08979591 0.41177639
0.21260148 -0.089254238 0.41189551
0.23762244 -0.088836879 0.41117775
0.26256517 -0.089327715 0.41191506
0.28774691 -0.089250803 0.41133085
0.31284145 -0.089190729 0.41159657
0.33758685 -0.089172229 0.41106176
0.36218667 -0.089937665 0.41162342
0.38723642 -0.089639224 0.41172901
0.41217461 -0.087350637 0.4113726
0.43388408 -0.091075547 0.41758659
0.4504298 -0.098880291 0.42179787
0.11453065 -0.071597159 0.40349111
0.18893565 -0.073893346 0.40124071
0.21785036 -0.074881822 0.40093881
0.22904027 -0.072461486 0.40023452
0.25520599 -0.073130988 0.40068895
0.2828486 -0.0744524 0.401447
0.33855742 -0.074340247 0.40007299
0.39525387 -0.0730443 0.4029355
0.40658525 -0.073141091 0.40314043
0.065440789 -0.12532306 0.4466522
0.083390675 -0.12628438 0.44604731
0.10969856 -0.1266956 0.44668144
0.13399664 -0.12628272 0.44726899
0.15998802 -0.12685776 0.44737062
0.18738404 -0.12689975 0.44796047
0.20774689 -0.12776309 0.44862401
0.23440254 -0.12710629 0.44880176
0.2602607 -0.12638718 0.44967383
0.28994805 -0.12565088 0.44806492
0.31025383 -0.12562793 0.44934082
0.34493136 -0.12583649 0.44900542
0.068352178 -0.11016943 0.44076398
0.086709917 -0.11120644 0.43837601
0.1120908 -0.11111037 0.43869162
0.13720053 -0.10986373 0.4381507
0.16232903 -0.10994519 0.43816549
0.18776351 -0.10925443 0.43825623
0.21223572 -0.1094247 0.43842292
0.2370263 -0.10952771 0.43823555
0.26240402 -0.10895329 0.43850639
0.2878125 -0.10928532 0.43838891
0.31268126 -0.10927462 0.43866846
0.33719972 -0.10915351 0.43913627
0.36261216 -0.10928287 0.43957308
0.3873544 -0.10957021 0.43879217
0.41230622 -0.10965665 0.43938783
0.43726429 -0.1086202 0.440097
0.45264867 -0.1070807 0.44205981
0.070718221 -0.09645322 0.43339264
0.087083451 -0.095290788 0.43262908
0.1124301 -0.095528215 0.43166286
0.13766211 -0.096830502 0.43143171
0.16227473 -0.09684734 0.43144515
0.18741575 -0.096761174 0.43030518
0.21297161 -0.097516783 0.43179008
0.23815256 -0.09667553 0.43219632
0.26235896 -0.09647695 0.43054706
0.2861509 -0.096588261 0.43155771
0.31216362 -0.096774824 0.43180954
0.33772942 -0.096327916 0.43075579
0.36276063 -0.096797913 0.43171304
0.38755825 -0.096484303 0.43292838
0.41355577 -0.094724819 0.4328661
0.43661433 -0.094931506 0.4337047
0.45210743 -0.095623709 0.43244815
0.065638088 -0.12888019 0.46655264
0.086991474 -0.13016947 0.46400249
0.11232252 -0.1299482 0.46419352
0.13750017 -0.13002938 0.46395352
0.16306789 -0.12970881 0.46464175
0.18745261 -0.12955704 0.46403217
0.21206684 -0.12991662 0.46555385
0.23782611 -0.12933829 0.46529546
0.26149133 -0.12936307 0.46534097
0.28714061 -0.12914914 0.46511602
0.31226313 -0.12898009 0.46541294
0.33785272 -0.12881505 0.46573192
0.36207366 -0.12891555 0.46620923
0.38739085 -0.12872693 0.46598163
0.41229224 -0.12858063 0.46652594
0.43544385 -0.12816021 0.46708801
0.45425916 -0.12762731 0.46927261
0.06525258 -0.11642608 0.46195835
0.086922027 -0.11392455 0.46172309
0.11179591 -0.11451206 0.46172872
0.13769223 -0.11521834 0.46093324
0.1626427 -0.11520106 0.46174225
0.18767044 -0.11532679 0.46157199
0.21221821 -0.11505806 0.46123326
0.23769127 -0.11508112 0.46117339
0.26313648 -0.11519622 0.46104729
0.28764969 -0.11470345 0.46122885
0.31254521 -0.1149973 0.46161547
0.33764118 -0.11508116 0.46160659
0.36200112 -0.11520398 0.46133366
0.3875649 -0.11489215 0.46124861
0.412826 -0.11415337 0.46111131
0.43850484 -0.11377379 0.46082121
0.45516634 -0.11589022 0.46376747
0.091986537 -0.099941432 0.45008296
0.44503099 -0.099300504 0.45113918
0.064278662 -0.13093016 0.48760757
0.087116621 -0.1334939 0.48750138
0.11211529 -0.13361557 0.48775631
0.13737899 -0.13332047 0.48784816
0.16372162 -0.13340338 0.48778
0.18774343 -0.1332431 0.4872632
0.21270855 -0.13301969 0.48743743
0.23819253 -0.13323052 0.48882648
0.26275501 -0.13293222 0.48956743
0.28772554 -0.13326858 0.48850715
0.31194904 -0.13307662 0.48842788
0.33749723 -0.13288328 0.48769978
0.36336774 -0.13297704 0.4878554
0.38765359 -0.13291292 0.48778534
0.41317722 -0.13285337 0.48791802
0.43804389 -0.13142353 0.48709854
0.45620495 -0.1287408 0.48868972
0.064236514 -0.11900542 0.48818311
0.087446064 -0.11801024 0.48865801
0.11240374 -0.11842482 0.4875257
0.13780233 -0.11909308 0.48740977
0.16188233 -0.11915389 0.48794779
0.18773745 -0.11922389 0.48719883
0.21278022 -0.11912946 0.4879708
0.23713009 -0.11893731 0.48765343
0.26187509 -0.11904692 0.48737586
0.28727496 -0.11900732 0.48788297
0.31182408 -0.11885808 0.48790309
0.33706856 -0.11886989 0.48830533
0.36239818 -0.11874391 0.48693883
0.38772666 -0.11835373 0.48730114
0.41326335 -0.11744791 0.48769379
0.4382903 -0.11713199 0.48797289
0.45637727 -0.11969491 0.48668379
0.066634767 -0.12861903 0.51050776
0.087379493 -0.12996012 0.51188034
0.11223605 -0.12997012 0.51174593
0.13781342 -0.12998326 0.51225662
0.16261648 -0.13015443 0.51174021
0.18769757 -0.13026893 0.51142329
0.21271616 -0.12991263 0.51205009
0.23774622 -0.13006097 0.51186115
0.2627978 -0.13007782 0.5119676
0.28736413 -0.1302601 0.51158857
0.31203073 -0.12999593 0.51178813
0.33784926 -0.13021494 0.51124626
0.36296695 -0.12988493 0.51251692
0.38742399 -0.13008687 0.51155823
0.412723 -0.12995686 0.51173598
0.43709493 -0.12966211 0.51082569
0.45454043 -0.12811486 0.50854117
0.064444847 -0.11637999 0.51387346
0.087256424 -0.11389944 0.51288646
0.11235251 -0.11459368 0.51346487
0.13770093 -0.1155166 0.51267791
0.16297245 -0.11543347 0.51359433
0.18765697 -0.11592615 0.5119682
0.21292989 -0.11538328 0.5133763
0.23738636 -0.11530171 0.51277286
0.26246297 -0.11555839 0.5123232
0.28661266 -0.11539503 0.5134967
0.31223679 -0.11504722 0.51282573
0.33730873 -0.11537633 0.51312155
0.36236474 -0.11541946 0.51232976
0.38774613 -0.11486103 0.51323551
0.41239253 -0.1143795 0.5127973
0.43830755 -0.11438525 0.51395649
0.45520616 -0.11701375 0.51319945
0.068662651 -0.12688307 0.53012407
0.089030005 -0.12748273 0.53060478
0.11329115 -0.12723726 0.53114617
0.13585946 -0.1270974 0.53123236
0.16210169 -0.12718596 0.53111017
0.18799369 -0.1273092 0.53007585
0.21330152 -0.12718047 0.53033346
0.23790398 -0.12718844 0.53076398
0.26143795 -0.12702988 0.53040618
0.28724828 -0.12699479 0.53102881
0.31206009 -0.12693934 0.53032899
0.3367205 -0.1269931 0.52977657
0.36190125 -0.12717104 0.53008401
0.38788027 -0.12692726 0.52968669
0.41312245 -0.12706251 0.52988344
0.43487728 -0.12671205 0.52933544
0.45045784 -0.12682271 0.53087771
0.065869309 -0.11243082 0.53732473
0.087459326 -0.11299434 0.53789675
0.11196764 -0.11303507 0.53826988
0.13719384 -0.11307046 0.53806293
0.16250795 -0.1133931 0.53796971
0.18753691 -0.11310552 0.53782588
0.21209647 -0.11321978 0.53763342
0.23756075 -0.11358026 0.53799266
0.26262638 -0.11301441 0.53797793
0.28783011 -0.1137793 0.53800178
0.3127003 -0.11325955 0.53780782
0.33738133 -0.11360764 0.53832906
0.36251286 -0.11345957 0.53746742
0.38754126 -0.11292981 0.5380035
0.4124217 -0.11299728 0.53787339
0.43815556 -0.11231932 0.53796512
0.45505419 -0.11154117 0.53769529
0.072067477 -0.099015929 0.54798007
0.08508873 -0.09939301 0.54657894
0.1129628 -0.099537544 0.54806978
0.14645642 -0.09987849 0.54993957
0.15380609 -0.099738166 0.54748029
0.18103682 -0.099364012 0.54911947
0.22347808 -0.099536568 0.54781055
0.23006052 -0.099557072 0.54603189
0.27176285 -0.099735171 0.547584
0.28467599 -0.099114552 0.54827684
0.31762946 -0.099141896 0.54757667
0.34166408 -0.099003874 0.54677874
0.35450241 -0.099148393 0.54764849
0.38388726 -0.099155955 0.54760772
0.41304934 -0.098867543 0.54439837
0.43828806 -0.09835162 0.54643029
0.066240765 -0.10769606 0.561023
0.087453447 -0.1119208 0.5613243
0.11270443 -0.11117847 0.56133103
0.13746792 -0.11120538 0.56151277
0.1624092 -0.11104751 0.56084901
0.18729031 -0.11118504 0.56134927
0.21289121 -0.11081706 0.56033802
0.23746587 -0.11102201 0.56037319
0.26242173 -0.11105274 0.56072295
0.28728026 -0.11075959 0.56101173
0.31269985 -0.11090827 0.56101435
0.33819193 -0.11065657 0.56161731
0.36279967 -0.11063866 0.56106371
0.38740295 -0.11133878 0.56129092
0.41252819 -0.11144684 0.56145138
0.43802932 -0.10985831 0.56111395
0.45402187 -0.10679261 0.56120533
0.068462029 -0.096256465 0.56546903
0.087518416 -0.095623098 0.56416839
0.11201297 -0.095810823 0.56517744
0.13770291 -0.096514016 0.5651198
0.16297537 -0.096488766 0.56543595
0.18795541 -0.096564822 0.56534159
0.21265966 -0.096323766 0.56548899
0.23778741 -0.096306443 0.56632984
0.26222122 -0.096267246 0.5660879
0.28761083 -0.096625298 0.56494796
0.31232616 -0.096247382 0.56654584
0.33722824 -0.096240424 0.56579
0.36279631 -0.096199945 0.56573153
0.38830179 -0.096045703 0.5653187
0.41276002 -0.095688179 0.56428874
0.43690264 -0.095256843 0.56512731
0.45345157 -0.096988022 0.56497401
0.068956174 -0.10413864 0.58414078
0.087422132 -0.10581949 0.58550978
0.11228398 -0.10554106 0.58699948
0.13751119 -0.10554844 0.58677387
0.16205172 -0.10585353 0.58656991
0.1871018 -0.10580369 0.58649671
0.2117243 -0.10600603 0.58623219
0.23762786 -0.10564859 0.58630455
0.26282725 -0.10584428 0.58634442
0.28757983 -0.10617833 0.58549488
0.31246918 -0.10554507 0.58695292
0.33712879 -0.1055344 0.58698934
0.36242357 -0.10590517 0.58627254
0.38789093 -0.10583369 0.58618259
0.41281313 -0.10576458 0.58629334
0.43627721 -0.10462182 0.58584023
0.45250887 -0.10424356 0.58279765
0.067795739 -0.09214735 0.5880338
0.086798221 -0.089033641 0.58842576
0.1126292 -0.089472607 0.58829457
0.13679515 -0.090385653 0.58783948
0.16215 -0.090569623 0.58853936
0.18733422 -0.090454884 0.58784193
0.21282402 -0.090675123 0.58806944
0.23726718 -0.090074494 0.58836335
0.26234025 -0.090442464 0.58819938
0.28754041 -0.090583667 0.58820093
0.31329295 -0.09007851 0.58842236
0.33807451 -0.090233363 0.58798325
0.36259958 -0.090478726 0.58836234
0.38723487 -0.0894913 0.5883224
