# .PCD v0.7 - Point Cloud Data file format
VERSION 0.7
FIELDS x y z
SIZE 4 4 4
TYPE F F F
COUNT 1 1 1
WIDTH 1284
HEIGHT 1
VIEWPOINT 0 0 0 1 0 0 0
POINTS 1284
DATA ascii
0.010031283 0.046289995 -0.0005594765
0.39826602 0.048187733 -0.00076705217
0.40906435 0.045675211 -0.0014344826
-0.00038464367 0.063649893 -0.00080022216
0.0098359883 0.063123152 -0.0018240715
0.39791349 0.063310236 -0.0018498451
0.40975165 0.065269999 -0.0020453881
-0.00077408552 0.081283525 -0.0006878823
0.0098285237 0.087141193 -0.0019522953
0.39737722 0.087212846 -0.0020200773
0.40955833 0.087735102 -0.0021404943
-0.0014492472 0.11788157 -0.0010990401
0.0099331653 0.11286631 -0.0019119228
0.39781058 0.11490621 -0.0022188723
0.4093895 0.11250162 -0.0021149607
-0.00076325238 0.13131577 -0.00046245381
0.0096835541 0.13743648 -0.0021137246
0.39855209 0.13883723 -0.0019719838
0.40899399 0.13729379 -0.0023076234
-0.0016361177 0.16332111 -0.00073101744
0.0098447688 0.16248287 -0.0020694071
0.39756149 0.16245814 -0.0025467777
0.40944514 0.1631586 -0.0024804438
-0.0033663213 0.17908254 -0.00038319826
0.0099809906 0.18718639 -0.0018574777
0.39814129 0.18634595 -0.0029035518
0.40953696 0.18777192 -0.0024388514
-0.0011928141 0.21634373 -0.0010879189
0.0099414848 0.21272762 -0.001962486
0.39758193 0.21409924 -0.0030724804
0.40943152 0.21243694 -0.0020898066
-0.00063808262 0.22866637 -0.00051796436
0.0098854164 0.23688209 -0.0019513913
0.39757341 0.23837137 -0.0020947126
0.40982166 0.23775829 -0.0020343936
-0.00046592951 0.25930899 -0.0018182695
0.010349157 0.26253194 -0.0020680237
0.39722514 0.25992477 -0.0023691431
0.40977469 0.2632212 -0.0022376883
-0.0011855662 0.28661203 -0.00048413873
0.0099543873 0.28724423 -0.0022559199
0.39790466 0.28520402 -0.00260699
0.40916747 0.2873683 -0.0025175218
-0.00092852116 0.30486304 -0.0015883222
0.0086919023 0.31212121 -0.0021845952
0.3977133 0.31409073 -0.0027971193
0.40846506 0.31155252 -0.0022038349
-0.0016225278 0.33927044 -0.00070161623
0.010017447 0.33740911 -0.0022163242
0.39686689 0.34070185 -0.0023747343
0.40968478 0.33685321 -0.0021933219
-0.0025475621 0.35984758 -0.00064471364
0.010261237 0.36314031 -0.0021965273
0.39785728 0.3639141 -0.0035595715
0.40924364 0.36232984 -0.0022761482
0.01610508 0.38566151 -0.0018201917
0.034920651 0.39560658 -0.0020884685
0.060825564 0.39780805 -0.0015020474
0.088062532 0.39756966 -0.0018433443
0.11050176 0.39806262 -0.0023901961
0.13696054 0.39801905 -0.0017589385
0.16464376 0.39798057 -0.0023791799
0.18651426 0.39793801 -0.0018841635
0.21261983 0.39736208 -0.0019472379
0.23902419 0.39774853 -0.0023051633
0.26255688 0.39755696 -0.0028113215
0.28612134 0.39800674 -0.0023832326
0.31186464 0.39772081 -0.0022283799
0.3351526 0.39782178 -0.0021744303
0.36396801 0.39778292 -0.0029071236
0.3911894 0.39173302 -0.0027677347
0.40547955 0.38413301 -0.0015731687
0.021453511 0.40224144 -0.0011875267
0.039440464 0.40411416 -0.0015678006
0.06341093 0.40522832 -0.0020875186
0.087447934 0.40536475 -0.0020190612
0.11270791 0.40546879 -0.0020119317
0.13780724 0.40531304 -0.0021016027
0.16230474 0.40512961 -0.0022467047
0.18616094 0.40527305 -0.002020271
0.21325071 0.40496886 -0.002662
0.23778751 0.40556392 -0.0019987242
0.26198331 0.40535039 -0.0021575547
0.28722724 0.40473554 -0.0024224129
0.31162757 0.40533569 -0.0023909325
0.33897796 0.40543547 -0.0022219336
0.36245766 0.40548909 -0.0024362209
0.38298658 0.40281028 -0.0022835284
-0.00075530011 0.02179567 0.023161734
0.0096546886 0.02160353 0.020456467
0.39680171 0.022946389 0.021723459
0.41149995 0.022036621 0.020929124
-0.0025989688 0.039139748 0.01500122
0.011254851 0.038148392 0.013483398
0.39637035 0.03860208 0.0151447
0.41127986 0.038171522 0.013953428
-0.0028699653 0.062901512 0.0081287874
0.011580278 0.062077735 0.010007246
0.39608821 0.062668346 0.011816635
0.41163439 0.062202394 0.010611407
-0.0029305581 0.086999089 0.0087566786
0.011563201 0.087559216 0.0098102577
0.39625591 0.088270061 0.011570906
0.41142026 0.087424733 0.01072737
-0.002764344 0.11198382 0.008714661
0.011791671 0.11270881 0.010013242
0.39631984 0.11247405 0.011109329
0.41170585 0.11198641 0.010615462
-0.0028293738 0.13761458 0.0085260998
0.011766363 0.13762058 0.0095593855
0.39614815 0.13785322 0.01142612
0.41150796 0.13739327 0.010631476
-0.0031862829 0.16211496 0.0088591147
0.011693861 0.16241215 0.0098022157
0.3969461 0.16221124 0.011931499
0.41180837 0.16261575 0.010365634
-0.0030414488 0.18724439 0.0086603211
0.011559447 0.18732263 0.0096559403
0.025348082 0.18894184 0.010116596
0.39660594 0.18773988 0.011142867
0.41186693 0.18750833 0.010546003
-0.0025213328 0.2117904 0.0094608311
0.011498811 0.21240778 0.0094264708
0.025315762 0.22155637 0.012326732
0.39648196 0.2130771 0.010735312
0.41162887 0.21227829 0.010918587
-0.0024804468 0.23789045 0.0088233463
0.011706237 0.23733366 0.0097671254
0.39606035 0.23826408 0.010516509
0.41167048 0.23720752 0.010303499
-0.0031258317 0.26257083 0.0095601883
0.011303356 0.26244107 0.0093284901
0.025696501 0.25695482 0.010082383
0.39674011 0.2627551 0.01179982
0.41161138 0.26252794 0.010766789
-0.0028909589 0.28800732 0.0095967827
0.011428561 0.28788406 0.0095577976
0.025439978 0.29925644 0.008862582
0.39675531 0.28783751 0.010669199
0.41163144 0.28775293 0.010427303
-0.0032025978 0.31300715 0.0086259311
0.011079154 0.31281948 0.0096419081
0.025153607 0.31460387 0.011305158
0.39616191 0.31280756 0.010604752
0.41159543 0.31266296 0.010618681
-0.0026483878 0.33735526 0.0097714076
0.011266118 0.33726066 0.0092819249
0.025754025 0.33568844 0.01003886
0.39659515 0.33739963 0.01083464
0.41140366 0.33761522 0.010391379
-0.0023732299 0.36147499 0.010011789
0.011301579 0.36275777 0.0092906719
0.025999838 0.36283171 0.0095018521
0.39624825 0.36301294 0.0098574031
0.41095614 0.36210573 0.010644996
-0.0015591916 0.38268587 0.010500546
0.013839581 0.38711926 0.009403741
0.03522912 0.3925041 0.0089400141
0.062191274 0.39695209 0.0084341038
0.08761435 0.3970699 0.0081908442
0.11269166 0.39717004 0.008699242
0.13739955 0.39692292 0.0082070753
0.16194908 0.39708352 0.0080313981
0.18650955 0.39702982 0.0091411388
0.212604 0.39713937 0.0087296292
0.23802403 0.39703253 0.0091491975
0.26296437 0.39718971 0.0093164258
0.28774494 0.39713973 0.0088301301
0.31260222 0.39722195 0.0095073255
0.33749178 0.3972587 0.0094054723
0.36273485 0.39699891 0.009980198
0.39022446 0.39155951 0.010309894
0.40761745 0.38563827 0.010562869
0.020124977 0.40430018 0.010384561
0.038042683 0.40671879 0.0099587748
0.062653139 0.40835127 0.0096506523
0.087897971 0.4083716 0.010049754
0.11281005 0.40832254 0.010276128
0.1378291 0.40840834 0.010088583
0.16223975 0.40844816 0.010030597
0.18721554 0.40835235 0.010293244
0.2126385 0.40838227 0.010169792
0.23787409 0.40838644 0.010249181
0.2627621 0.40839398 0.010586956
0.28793898 0.40839475 0.010345338
0.31269133 0.40845841 0.010645801
0.33711699 0.40830058 0.010650212
0.36251074 0.40833107 0.010751033
0.38607886 0.40564427 0.010773635
0.40131637 0.40188393 0.0083044106
-0.0022855706 0.020066172 0.038097341
0.011114687 0.018671421 0.038728803
0.39707893 0.020324912 0.037892662
0.41138521 0.01904696 0.037997976
-0.0028394861 0.031529613 0.033460982
0.012309034 0.032952424 0.036199845
0.025424398 0.026977658 0.046503089
0.39633697 0.033048436 0.034608692
0.41146472 0.033314168 0.036203321
-2.6464462e-05 0.061095953 0.025226295
0.0082128868 0.060891215 0.026452592
0.39896047 0.051781774 0.025485635
0.4061211 0.054091245 0.025707962
0.0076861507 0.089214243 0.02557664
0.006880187 0.11307252 0.025501434
0.40614694 0.12225121 0.025044918
0.0082156509 0.13729152 0.025552887
0.40811282 0.13535541 0.025190651
0.0072139204 0.16350296 0.025648564
0.40769348 0.16105179 0.02540038
0.0092622004 0.18458262 0.025600672
0.40637913 0.18952131 0.025263488
0.0086254179 0.20940609 0.025602747
0.40840805 0.20353347 0.025409022
0.0080703022 0.23250499 0.025702924
0.40707964 0.23730241 0.025362492
0.01112581 0.26196018 0.025950914
0.40708661 0.26292419 0.025691211
0.010111306 0.28603968 0.02598967
0.40674892 0.2871322 0.025340378
0.011350024 0.31054845 0.026424121
0.40732184 0.30951056 0.026035309
0.0090763569 0.3376596 0.025651697
0.40685138 0.33658028 0.025618523
0.010070138 0.36459368 0.026592202
0.40650716 0.36513266 0.025429845
0.016175639 0.38439843 0.026022751
0.029086351 0.39783251 0.025801323
0.1008895 0.39854181 0.025555313
0.16465345 0.39879024 0.025676668
0.22595656 0.39902925 0.025793254
0.25016642 0.39989924 0.02660048
0.28045452 0.39945978 0.026205033
0.30162147 0.39941359 0.02641356
0.33442307 0.39932841 0.02616635
0.3524667 0.39892471 0.026233256
0.3925623 0.38899454 0.025769148
0.40661553 0.38294223 0.02597785
0.04017254 0.40380982 0.026564702
0.062796965 0.40558055 0.02616228
0.090454005 0.40361023 0.026399141
0.11986019 0.40234661 0.026008034
0.13606673 0.40341228 0.026431311
0.1633812 0.40547732 0.026072135
0.18865165 0.40365395 0.026042325
0.21288429 0.40373999 0.02597074
0.24123718 0.40536281 0.026016304
0.27001277 0.4053176 0.02559875
0.28769892 0.40275732 0.025534714
0.30864626 0.40512195 0.025611337
0.33048019 0.40460971 0.025928235
0.35998964 0.40408173 0.025543682
0.38008165 0.40350759 0.026136309
-0.0026176402 0.018626226 0.061721146
0.011542354 0.017582683 0.062209133
0.026151069 0.024792552 0.068776958
0.3965939 0.019312268 0.062276397
0.41197687 0.017680045 0.061962023
-0.0024074009 0.028713588 0.062696271
0.011551008 0.029991932 0.062464427
0.39682758 0.029571807 0.06200308
0.41094875 0.030118845 0.062859192
-0.0022551171 0.018749472 0.087203562
0.011150358 0.017702844 0.087475188
0.026886128 0.022293329 0.091364317
0.39572152 0.019003235 0.087392367
0.41195762 0.017682971 0.087070547
-0.0032612467 0.028872309 0.085440479
0.011684051 0.030207301 0.087334201
0.39683017 0.028660491 0.087029956
0.41116509 0.029945843 0.087687492
-0.0022582028 0.018623056 0.11288785
0.011260751 0.017408479 0.11241484
0.39605889 0.018133467 0.11211124
0.4122318 0.017417975 0.11214201
-0.0029209759 0.028359879 0.11111099
0.011812083 0.030037057 0.11200664
0.39586157 0.028410029 0.11395238
0.41124505 0.03001577 0.11240823
-0.0025668207 0.019120719 0.13742878
0.011048782 0.017546052 0.13774772
0.39670026 0.01858229 0.13662449
0.41185638 0.017675653 0.13731486
-0.0031503127 0.028932955 0.13689135
0.011424679 0.030158548 0.13720939
0.3961854 0.029706378 0.13540776
0.41112959 0.029977441 0.13703996
-0.0022091467 0.01907555 0.16259834
0.011338766 0.01779628 0.16242784
0.3957265 0.018729232 0.16121861
0.41211987 0.017679177 0.16230126
-0.0029018358 0.027755206 0.16303444
0.011530919 0.03025456 0.16229516
0.025013991 0.027181149 0.17387509
0.39595717 0.028702872 0.1594754
0.41122854 0.030172627 0.16277939
-0.0024505847 0.019726414 0.18620452
0.011413501 0.017652189 0.18751834
0.39642301 0.018282063 0.18661003
0.41202116 0.01788548 0.18740425
-0.0018064141 0.029421128 0.18936308
0.011656902 0.030410958 0.18717194
0.025765873 0.0264889 0.19741705
0.39604095 0.029531538 0.18627053
0.41117951 0.030146675 0.18788993
-0.0023778342 0.018550487 0.21316461
0.010855857 0.017450271 0.2122359
0.026521035 0.024639249 0.2214056
0.3964659 0.018231196 0.21230379
0.41191003 0.017655769 0.21200338
-0.001991818 0.028250886 0.21125738
0.011824245 0.030343793 0.21191941
0.39621156 0.029165041 0.21067229
0.41173968 0.030233676 0.21241602
0.4250167 0.028142452 0.20080307
-0.0022263981 0.019444559 0.23787187
0.01138084 0.017617412 0.23723854
0.027283274 0.022046924 0.24583617
0.39607391 0.018759061 0.23751636
0.41190606 0.017644096 0.23733152
-0.0023240985 0.028350929 0.23914872
0.011963627 0.030500693 0.23673813
0.39710143 0.029766522 0.23761487
0.4113746 0.030391177 0.23709022
-0.0023767296 0.018925058 0.26306489
0.011217016 0.017441496 0.26234832
0.39663333 0.018289125 0.26226091
0.41223541 0.017742334 0.26253879
-0.0020769711 0.028144732 0.26216021
0.011757942 0.030448735 0.26285517
0.3968564 0.029407779 0.26264894
0.41128215 0.030038636 0.26243934
0.39073384 0.28191811 0.27478439
-0.0025787337 0.018866522 0.28777847
0.010931014 0.01739482 0.28761563
0.027269794 0.022356093 0.29737177
0.39461237 0.017257882 0.28972951
0.41256255 0.017675808 0.28718489
-0.002324726 0.028418183 0.2884275
0.011542635 0.030737374 0.28736541
0.029549055 0.039997049 0.29789695
0.05709359 0.049072087 0.29990232
0.1275629 0.047373474 0.29988056
0.15854064 0.047779709 0.29983595
0.18458968 0.048841029 0.29967764
0.23860359 0.047609437 0.29977083
0.25965631 0.048479035 0.29986191
0.29067907 0.047726668 0.29970652
0.31659231 0.048331559 0.29959661
0.33745199 0.046858825 0.29968992
0.36237711 0.045730755 0.29954106
0.39146727 0.036084741 0.29471526
0.41165197 0.030127604 0.28716645
0.42573789 0.026508212 0.27567679
0.021458572 0.06499739 0.29799289
0.032191921 0.062897734 0.29766154
0.062802985 0.066548437 0.29912069
0.087204203 0.06541951 0.29912794
0.11270801 0.065683872 0.29915196
0.13643187 0.063910082 0.29919824
0.16156666 0.066081628 0.29901388
0.18699293 0.065009519 0.29903623
0.21161807 0.064496219 0.29906258
0.2382026 0.065272748 0.29876584
0.26170191 0.064697288 0.29883882
0.28727183 0.064639464 0.29891101
0.31366995 0.063837558 0.29887983
0.33880007 0.063189216 0.29889742
0.36200249 0.065086134 0.29878026
0.38991725 0.062952787 0.29760218
0.40020403 0.070953965 0.298228
0.020576986 0.087340303 0.2967979
0.035897888 0.08743833 0.29698306
0.062202327 0.087655142 0.2983357
0.087153949 0.088294655 0.2981022
0.11285864 0.089031413 0.29808429
0.13751335 0.088220134 0.29807931
0.16162913 0.088625841 0.29793447
0.18701036 0.087696254 0.29790947
0.21172249 0.087962344 0.29792613
0.23806456 0.088659368 0.29784495
0.26223829 0.088350825 0.29781362
0.28599364 0.088389434 0.29775816
0.31266382 0.087623186 0.29773355
0.33741665 0.088364594 0.29764059
0.36257231 0.088835828 0.29752386
0.3877627 0.087505847 0.29659808
0.40147787 0.087757118 0.29768258
0.020290572 0.11280201 0.29582316
0.036324032 0.11246324 0.29572526
0.062356874 0.11266798 0.29674762
0.087400988 0.11314815 0.29696158
0.11213224 0.113377 0.29691389
0.13753118 0.11305116 0.29677397
0.16258198 0.11348579 0.29706398
0.18727721 0.11336043 0.29662779
0.21205284 0.11255623 0.29692799
0.23691563 0.11320225 0.296772
0.26254749 0.11344234 0.29662901
0.28719345 0.11246955 0.29688728
0.31293935 0.11317171 0.29664606
0.33790389 0.11360238 0.29664549
0.36228091 0.11336298 0.29677868
0.38861963 0.11287114 0.2957274
0.40191188 0.11200292 0.29809463
0.019623592 0.13773613 0.29511386
0.036202468 0.13811527 0.29442731
0.062239334 0.13760483 0.29573023
0.087496445 0.13859983 0.29577133
0.11251862 0.13776937 0.29565445
0.13738981 0.13789539 0.29557529
0.16307366 0.13794117 0.2959359
0.18759397 0.1376874 0.29579386
0.21214771 0.13801803 0.29579794
0.23685165 0.13798152 0.29585272
0.26285499 0.13728796 0.29583222
0.28748569 0.13809992 0.29590979
0.31220675 0.13760956 0.29559699
0.33758613 0.13859548 0.29586685
0.36335438 0.13809215 0.2957373
0.38895598 0.1382764 0.29451659
0.40262365 0.13869479 0.2966457
0.019184133 0.16289347 0.29411483
0.036471687 0.16305558 0.29341927
0.063221745 0.16306676 0.29483405
0.087073199 0.16300498 0.29490381
0.11253002 0.16286035 0.29493526
0.1376909 0.16284516 0.29504284
0.16221432 0.16267316 0.29480335
0.18873 0.16311482 0.29494402
0.21252196 0.16311686 0.29488716
0.23692299 0.16314359 0.29490826
0.26247498 0.16316247 0.29506269
0.28794739 0.16338372 0.29520398
0.31270838 0.16289157 0.29512522
0.33762389 0.16316357 0.29534534
0.36191747 0.16290645 0.29502788
0.38808385 0.16279046 0.29406685
0.40242156 0.16511144 0.29657716
0.01973241 0.18785389 0.29285064
0.037210237 0.18782233 0.2930288
0.063266531 0.18798636 0.29386795
0.087375753 0.18764123 0.2940408
0.11268405 0.18758984 0.29404804
0.13732526 0.18811497 0.29438078
0.16209072 0.18747903 0.29418975
0.18833652 0.18804596 0.29447845
0.21248202 0.18809246 0.29419902
0.23692375 0.1881087 0.29418558
0.26284531 0.18784893 0.29434097
0.28776348 0.1882052 0.29425681
0.31190923 0.18823592 0.29463813
0.33779472 0.18795769 0.29467863
0.3624104 0.18801333 0.29459447
0.38759434 0.18783218 0.29325047
0.40230408 0.18870763 0.29412118
0.019844037 0.21279673 0.29236147
0.037693936 0.21278344 0.29205662
0.062532686 0.21297932 0.29291138
0.087325238 0.21291666 0.29313442
0.11238524 0.21303207 0.29300007
0.1369388 0.2126116 0.29330498
0.16220583 0.21296526 0.2931484
0.18830283 0.21251717 0.29340529
0.21219073 0.21290658 0.29318222
0.23702297 0.21291345 0.29333192
0.26310879 0.21270181 0.29322726
0.28749031 0.21296611 0.29335594
0.31227154 0.21261249 0.29362094
0.3375231 0.21281162 0.29327598
0.36258185 0.21263348 0.29348743
0.38806447 0.21252713 0.29215971
0.4026866 0.21370065 0.29362327
0.019715445 0.23749863 0.29099855
0.036641363 0.2378384 0.29062986
0.061998997 0.2380051 0.2916241
0.087084576 0.23779447 0.29169956
0.11247592 0.23802994 0.29135767
0.13726012 0.23765115 0.29188314
0.16248618 0.23807859 0.29179543
0.18813854 0.23752184 0.29200703
0.21190123 0.23741956 0.29201445
0.23695575 0.23761985 0.29168013
0.2629599 0.23786178 0.29194427
0.28768986 0.23783635 0.29176512
0.31272888 0.23793849 0.29205254
0.33803341 0.23763391 0.29180267
0.36238062 0.2377988 0.29195443
0.38808009 0.23788746 0.29046527
0.40253246 0.2389247 0.29258826
0.019266618 0.2625044 0.28938311
0.036806624 0.26286563 0.28926086
0.062498499 0.26282561 0.2905826
0.087520868 0.26266512 0.29061872
0.11229675 0.26261511 0.29038447
0.13744047 0.26261988 0.2906906
0.16214837 0.26251826 0.29054531
0.18804953 0.26277605 0.29054129
0.21189384 0.26267895 0.29078797
0.23711091 0.26291013 0.29016647
0.26308662 0.2626788 0.29063669
0.28755927 0.26281846 0.29079872
0.31281605 0.26284006 0.29070303
0.33741415 0.26264101 0.29072887
0.36206448 0.26260829 0.29097408
0.38799644 0.26272747 0.28904065
0.40197587 0.26171258 0.29053256
0.019610928 0.2870881 0.28899476
0.035522748 0.28596774 0.28908491
0.062989742 0.28086567 0.28967473
0.087592065 0.28095549 0.28944534
0.11249287 0.28095663 0.28945681
0.13770016 0.28060213 0.29000914
0.16218458 0.28076667 0.28983667
0.18748778 0.28095725 0.2897912
0.21267661 0.28064483 0.2902483
0.2377945 0.28086954 0.28977501
0.26270857 0.28118718 0.29045242
0.28762192 0.28075352 0.28993943
0.31252423 0.28090945 0.29007506
0.33727688 0.28101376 0.29039061
0.36243346 0.28078404 0.29022554
0.38855731 0.28693283 0.28899843
0.40222874 0.28744611 0.29056761
0.01960223 0.31155503 0.29203263
0.032937314 0.3120282 0.29069483
0.37435901 0.31147549 0.29743892
0.38929886 0.31205106 0.29160658
0.40221572 0.31149948 0.29419556
0.020952784 0.32877353 0.29624617
0.030792732 0.32977638 0.29601327
0.37476328 0.32848111 0.29910517
0.38872913 0.33072543 0.29594031
0.40073326 0.3314029 0.2975437
-0.002184791 0.018537307 0.31232136
0.013966728 0.013956655 0.3121171
0.037697367 0.012106827 0.31300583
0.062686034 0.012986425 0.31332564
0.087316453 0.01308266 0.31336808
0.1123272 0.012971736 0.31339648
0.13745713 0.013021627 0.31356487
0.16269091 0.012813861 0.31351966
0.18723166 0.012568734 0.31392929
0.2123362 0.01268903 0.31388354
0.2376603 0.01295513 0.3140316
0.26260436 0.012998334 0.31413433
0.28756362 0.012877733 0.31417719
0.31257752 0.012840088 0.31408823
0.33748144 0.013006276 0.31454167
0.36251482 0.01275108 0.31407407
0.38780224 0.011741249 0.31306183
0.41073683 0.015904171 0.31263107
-0.0025548721 0.028119542 0.31407607
0.014685878 0.034626052 0.31240401
0.038286328 0.037143223 0.31178865
0.062842965 0.037445329 0.31176266
0.087853082 0.037252396 0.31148237
0.11244455 0.037239008 0.31145328
0.13744256 0.037020743 0.31169105
0.16294356 0.037172917 0.31170386
0.18789507 0.037069555 0.312269
0.21245351 0.03714205 0.31167257
0.23746246 0.037095066 0.31202316
0.26235938 0.037113301 0.31207269
0.28772259 0.037431747 0.31205961
0.31263882 0.037102837 0.31213096
0.3375794 0.037413511 0.31234497
0.36228871 0.03710242 0.3122499
0.38749012 0.037342146 0.31211248
0.4099206 0.032028805 0.31193209
0.019071622 0.062225804 0.3108055
0.03780663 0.062248044 0.31120482
0.0628305 0.062136956 0.31028882
0.087830737 0.062446281 0.31012696
0.11229502 0.062466025 0.31027755
0.13745795 0.062033687 0.31062308
0.16281487 0.062402401 0.31029791
0.18797632 0.062135588 0.31098989
0.21220386 0.062361002 0.3102423
0.2369111 0.062474042 0.31089407
0.26249248 0.06230621 0.3105205
0.28772244 0.062276881 0.3108094
0.31238201 0.062559493 0.31092611
0.33769 0.062542319 0.31094968
0.36272869 0.06236653 0.31076133
0.38765332 0.062405337 0.31194836
0.40185156 0.062491059 0.31132516
0.019310208 0.086912878 0.30910757
0.03745582 0.087516822 0.31009367
0.062632948 0.087213971 0.30921242
0.087458871 0.087524265 0.30914804
0.1129652 0.087702543 0.30916524
0.13754141 0.087160252 0.30927441
0.16297957 0.087477215 0.30907375
0.18774004 0.087349266 0.30948904
0.21258594 0.08753375 0.30942914
0.23748887 0.08719977 0.309457
0.26260939 0.087320879 0.30946085
0.28781039 0.087405577 0.3095848
0.31304169 0.08782693 0.30917707
0.33753458 0.08749789 0.30945206
0.362371 0.087648973 0.30949017
0.38758403 0.087578379 0.31085953
0.4021886 0.086845554 0.30908138
0.018932372 0.11167484 0.30782154
0.037199024 0.11235814 0.30905512
0.062434282 0.11237788 0.30797422
0.087088533 0.11234388 0.30794528
0.11284027 0.11221011 0.30811632
0.13753304 0.11252471 0.30817458
0.16233294 0.11227843 0.30829576
0.18759678 0.11235487 0.30818802
0.21307342 0.11194722 0.30810758
0.23784408 0.11256906 0.30825388
0.26262441 0.11271419 0.3084113
0.28720245 0.11268389 0.30812654
0.31298867 0.1124005 0.30815032
0.33756182 0.11238511 0.30833361
0.36231318 0.11224379 0.30830625
0.38801372 0.11215845 0.30953595
0.40231377 0.11221397 0.3071599
0.019140253 0.13695574 0.30685896
0.037049633 0.13724191 0.30839628
0.062526174 0.13781881 0.3066282
0.087310687 0.13702346 0.30681518
0.11280083 0.13695849 0.30694419
0.13755357 0.13743792 0.30669099
0.16216281 0.13718249 0.30693284
0.18753338 0.13740905 0.30661923
0.21319705 0.13724115 0.30693066
0.23851344 0.13705228 0.3067058
0.26279998 0.13774182 0.30686837
0.28733724 0.13736379 0.30673611
0.31258962 0.13728952 0.30668584
0.33751267 0.13754417 0.30675617
0.36255056 0.13726033 0.30652761
0.38819295 0.13701162 0.30840069
0.40181068 0.13738154 0.30643409
0.019954406 0.16208459 0.30627915
0.036827579 0.16183133 0.30672473
0.062934853 0.16236924 0.30555686
0.087333769 0.16212878 0.30557829
0.11229886 0.16220066 0.30579227
0.13745844 0.16197613 0.30587924
0.16222468 0.16235414 0.30551934
0.18750232 0.16240636 0.30568206
0.21357828 0.16192882 0.30577302
0.23849282 0.16202348 0.30574417
0.26283139 0.16213313 0.30598849
0.28818139 0.1618941 0.30548641
0.31271046 0.16222295 0.30542246
0.33726355 0.16214322 0.30611226
0.36278954 0.16220734 0.30548146
0.38833931 0.16230474 0.30789524
0.40180713 0.1604446 0.30506602
0.019886872 0.1865595 0.30593255
0.036827803 0.18674427 0.30590332
0.062867843 0.18695542 0.30498123
0.087730475 0.18709366 0.30493274
0.1120178 0.18700579 0.30521858
0.13717094 0.18638575 0.30471829
0.1622652 0.18764508 0.30518252
0.1875363 0.18661696 0.30482784
0.21327266 0.18669245 0.30501941
0.23758692 0.18704008 0.30492464
0.2629379 0.18693224 0.30528039
0.28694728 0.18637747 0.3048498
0.31233203 0.18709193 0.30507359
0.33656177 0.18708509 0.30538949
0.36293951 0.18720803 0.30525997
0.3882108 0.18704279 0.30711153
0.40190768 0.1861518 0.30403149
0.020392787 0.21228784 0.3044349
0.036366273 0.21188033 0.30517283
0.062067926 0.21122484 0.3042576
0.087340914 0.21173888 0.30438495
0.11199982 0.21199016 0.30445272
0.13635996 0.21186784 0.30449176
0.16251791 0.21206538 0.30458406
0.1877578 0.21197288 0.30440438
0.21242195 0.21205978 0.30442417
0.23726501 0.21223967 0.30449712
0.26267964 0.21188962 0.30485192
0.28783101 0.21153148 0.3042483
0.31199831 0.21213949 0.30448049
0.33713341 0.21192813 0.30451161
0.36354077 0.21159621 0.30454421
0.38887677 0.2126866 0.30580354
0.40173766 0.21129628 0.30208707
0.021121761 0.23662558 0.30405656
0.036742501 0.23764141 0.30485028
0.063229837 0.23668781 0.30385047
0.088086091 0.23704509 0.30381665
0.11312224 0.23734717 0.30367362
0.13795777 0.23664223 0.30369198
0.16172214 0.23674139 0.30346546
0.18835403 0.23706129 0.30342552
0.21191497 0.23726699 0.30324474
0.23682146 0.23707306 0.30341116
0.26194033 0.23675299 0.30352348
0.28701088 0.23780245 0.30326706
0.31322023 0.2363182 0.30331248
0.33719674 0.23753801 0.30332157
0.3626557 0.23701061 0.30320266
0.38931602 0.23767895 0.30489287
0.40162843 0.2366183 0.301514
0.022377668 0.26123595 0.30403417
0.035847697 0.26110253 0.30382729
0.063695557 0.26117986 0.30297858
0.088591009 0.2615315 0.30249986
0.11364368 0.26101568 0.30248827
0.13893937 0.26195136 0.30266654
0.16344178 0.26130077 0.30237848
0.18868935 0.26228794 0.30242547
0.21296579 0.26198667 0.30204347
0.23675424 0.26055032 0.30238751
0.26201537 0.26060995 0.30214357
0.2868911 0.26137379 0.30224285
0.31281704 0.26041645 0.30218896
0.3371262 0.26249969 0.30212474
0.3627885 0.26186013 0.30207476
0.38913783 0.26229858 0.3034209
0.40123761 0.26143667 0.30088785
0.02095913 0.28704891 0.30336785
0.033013653 0.28689122 0.30361512
0.063226849 0.2793794 0.30209541
0.0896492 0.28153262 0.30140898
0.11359873 0.28039488 0.30151287
0.13761181 0.28135052 0.30182034
0.16480263 0.28044635 0.3012287
0.18843015 0.28011951 0.30133095
0.21455896 0.28086305 0.30140376
0.23670325 0.2801097 0.30159742
0.26011264 0.27903607 0.30144176
0.28578699 0.27951443 0.30127522
0.31346908 0.28040975 0.30108356
0.3366977 0.2807056 0.30119056
0.36172384 0.27998528 0.30088732
0.39005268 0.28787923 0.30322132
0.40148318 0.2908206 0.30092725
0.020100242 0.31567207 0.30610242
0.031781908 0.3154107 0.30651814
0.37378371 0.31979463 0.30201137
0.3894355 0.31478587 0.30726618
0.40200081 0.31595659 0.30453244
0.019625207 0.33662549 0.31308815
0.032564454 0.33799702 0.31245992
0.37386048 0.33251393 0.31224278
0.38958591 0.33714068 0.31320387
0.40221611 0.33604664 0.31456965
0.021771371 0.35130998 0.3214657
0.030553181 0.35144478 0.32159275
0.38860643 0.35131824 0.31889203
0.40131131 0.35156366 0.32419536
-0.0022660228 0.018586418 0.33721605
0.0098220445 0.016979106 0.33729097
0.034705877 0.012752767 0.32685196
0.064796448 0.014683655 0.32578245
0.085991308 0.011862403 0.32576668
0.11311717 0.011755965 0.32569519
0.13753982 0.011714471 0.32580855
0.16289948 0.010839104 0.325629
0.18812385 0.011940125 0.32567626
0.21074331 0.0099715097 0.32561639
0.23878628 0.0088850399 0.325665
0.26228806 0.0091342451 0.3255893
0.28548321 0.0094844848 0.32569763
0.31033671 0.0080590518 0.32568225
0.33811373 0.0085488437 0.32582316
0.36180711 0.0089474563 0.32581466
0.39342651 0.015891002 0.33295012
0.41200009 0.017015994 0.33769336
-0.0023067947 0.027968513 0.33656013
0.0097509036 0.030651547 0.33720589
0.030177828 0.035711456 0.32760051
0.39392525 0.031913918 0.33295974
0.41167754 0.030096781 0.33723834
0.023223758 0.062884971 0.32591107
0.027948454 0.058742851 0.32619664
0.38766804 0.057207495 0.32567117
0.019785695 0.34264737 0.33573872
0.032399304 0.34272653 0.33556449
0.37400085 0.34445384 0.3358658
0.3891454 0.34207609 0.33547229
0.40254974 0.34339744 0.33587292
0.020371547 0.35446778 0.33941004
0.03188245 0.3547388 0.33864143
0.37404007 0.35206571 0.34375301
0.38914591 0.35451132 0.33894792
0.40190771 0.35419571 0.34260535
-0.0021855095 0.018567538 0.3618418
0.01033059 0.017516404 0.3621453
0.39609492 0.019030273 0.36261967
0.41204014 0.017518854 0.36222064
-0.0022403491 0.027942389 0.36106366
0.0094233938 0.030580455 0.36288303
0.39641955 0.029294737 0.36246818
0.41142264 0.030298449 0.36319092
0.020078247 0.34621859 0.36158791
0.030641522 0.34637794 0.36202416
0.37293893 0.34722835 0.36048841
0.38902542 0.34579328 0.36131272
0.40213162 0.34699798 0.36275336
0.019647526 0.35673475 0.36274827
0.032797966 0.35772076 0.36284569
0.37416026 0.3542273 0.36445647
0.38934219 0.35770682 0.36274058
0.40209869 0.35495794 0.36257243
-0.0022978098 0.021031935 0.3841809
0.010201691 0.019642036 0.38581362
0.39695564 0.02036974 0.38548231
0.41140911 0.019496053 0.38615724
-0.0022585073 0.03287293 0.39071146
0.010205662 0.03481188 0.38925022
0.025071979 0.031005919 0.39364052
0.39625213 0.032989718 0.38946423
0.41193959 0.033892415 0.38942477
-0.0010139644 0.053188384 0.39894778
0.0091564907 0.06069852 0.3971878
0.39871633 0.05992556 0.39793241
0.4071832 0.061227728 0.39612985
0.0093046268 0.087857015 0.39785373
0.39887533 0.087655723 0.3980729
0.4071452 0.08557336 0.39687622
-5.4568052e-05 0.10791373 0.39967471
0.0094584394 0.11268843 0.39777359
0.39799708 0.11231592 0.3987667
0.40751609 0.10944092 0.39646456
-0.0007429719 0.14455986 0.39876261
0.0088629872 0.13694474 0.39767981
0.39772376 0.13982819 0.39898092
0.40357056 0.13742068 0.39674652
-0.00194031 0.16198802 0.39982107
0.0083405012 0.16262758 0.39784479
0.39820576 0.16370636 0.39823097
0.40553162 0.1621716 0.39726925
-7.8350306e-05 0.19582719 0.39917922
0.0092493566 0.18747573 0.39805576
0.39726853 0.18844731 0.3986949
0.40709564 0.18656349 0.39707902
-0.00079011917 0.20650816 0.39731389
0.0091688018 0.21177471 0.398229
0.3970204 0.20727652 0.39899611
0.40672368 0.21324411 0.39678335
-0.00017762184 0.24913001 0.39961174
0.0087663233 0.23751661 0.39820683
0.39651138 0.23663704 0.39805233
0.40823469 0.23723599 0.39664739
-0.00035344064 0.2628004 0.39896297
0.0093706949 0.26238772 0.39805886
0.39788097 0.2650032 0.39814168
0.40787634 0.26386082 0.39801675
-0.001076138 0.2894198 0.39859641
0.0090444451 0.28726241 0.39783111
0.39789638 0.28795916 0.39801785
0.40932134 0.28830561 0.39804319
-0.0012509525 0.31061077 0.39925951
0.0099916402 0.31339291 0.39778519
0.39745685 0.30868655 0.39840794
0.41102937 0.31431171 0.3977294
-0.0021805912 0.33330217 0.39957413
0.015146197 0.34225541 0.39163086
0.03006156 0.34788302 0.38663566
0.37386924 0.34932214 0.39003175
0.38927794 0.34707144 0.38675833
0.40688711 0.34181926 0.39215744
0.017730562 0.35851046 0.3895888
0.032605108 0.35896501 0.38809967
0.3740294 0.35683227 0.39004803
0.38912308 0.35891506 0.38790998
0.40345293 0.35698813 0.38933739
-0.001274012 0.023990273 0.40067941
0.0083871251 0.022482276 0.4032048
0.39805865 0.023578895 0.40145001
0.408584 0.022391291 0.40237901
-0.0023535651 0.039968856 0.40637675
0.010156763 0.038496334 0.40924662
0.025155246 0.049445033 0.40558308
0.39628166 0.039637096 0.40698054
0.41123888 0.039233379 0.40969202
-0.0025216178 0.061910007 0.41056556
0.0094203092 0.062398359 0.41344616
0.02534407 0.064798832 0.40991992
0.39602169 0.062277306 0.41160619
0.41206276 0.062163383 0.41355529
-0.002566773 0.087264962 0.41348645
0.01004544 0.087803893 0.414233
0.026641848 0.091706365 0.41612899
0.39429033 0.088193476 0.41425422
0.41278821 0.087618016 0.41478321
-0.0025596311 0.11236603 0.41369951
0.010114595 0.11256276 0.41456911
0.026992036 0.11228298 0.41500291
0.39376846 0.11259877 0.41511282
0.41281036 0.11253268 0.41468409
-0.0030729591 0.13751924 0.4140777
0.0093558459 0.13743345 0.41439253
0.026742792 0.13889284 0.41553062
0.39362881 0.13733064 0.41512156
0.4125624 0.13742082 0.41466331
-0.0027936515 0.16254103 0.41369998
0.0096274596 0.16241308 0.41448271
0.026265565 0.16468675 0.41621232
0.39359528 0.16237226 0.41521135
0.41250652 0.16222264 0.41494679
-0.0025459314 0.18774457 0.41262475
0.010123487 0.18764211 0.41465625
0.02724166 0.18910193 0.4170045
0.39384213 0.18744248 0.41487944
0.41246048 0.18752731 0.4148196
-0.0024902155 0.21290798 0.41397977
0.010099714 0.2127465 0.41473773
0.02744234 0.21114662 0.41701975
0.39337769 0.21208824 0.41482449
0.41204554 0.21280992 0.41479638
-0.0026126574 0.23788418 0.41405845
0.010274394 0.23771276 0.41456091
0.027463779 0.23732999 0.41337276
0.39363188 0.23761882 0.41503465
0.41184178 0.23747885 0.4145321
-0.0025677062 0.26245984 0.41421801
0.010670777 0.26253846 0.4140113
0.027222889 0.2636154 0.4160569
0.39391106 0.2623809 0.41489229
0.41206184 0.26229036 0.41428089
-0.0025815682 0.28709176 0.41348591
0.010348456 0.28735307 0.41426018
0.027481077 0.28837892 0.41619626
0.39385906 0.28683701 0.41500589
0.4119989 0.28738615 0.41379845
-0.0026568109 0.31167108 0.41391066
0.010389335 0.31260267 0.41408211
0.027185129 0.31088164 0.41637516
0.39381328 0.31192318 0.41563785
0.41193423 0.31241906 0.41403848
-0.0022331374 0.33625746 0.41197878
0.010041421 0.33786541 0.41216066
0.028988434 0.34458366 0.40947428
0.39318827 0.34038618 0.41103414
0.41182622 0.33732653 0.41354495
-0.0024852259 0.35955933 0.41089916
0.012676788 0.36078605 0.41303882
0.035032321 0.36136124 0.4144513
0.06279771 0.36152303 0.41913882
0.087859035 0.36173725 0.41919896
0.1125277 0.3618111 0.41928402
0.13748708 0.36193544 0.41992173
0.16261187 0.36184683 0.41921553
0.18846294 0.36178827 0.41944543
0.21262492 0.36224213 0.41924021
0.23764642 0.36166772 0.41926801
0.2627877 0.36185887 0.41971934
0.28757301 0.36164773 0.41940045
0.31272015 0.3618235 0.41994092
0.33747721 0.36180621 0.41955176
0.36273491 0.36167344 0.41982922
0.38872871 0.36137769 0.41381842
0.41058913 0.36051455 0.41272733
0.026978165 0.37536985 0.42452329
0.39339468 0.37585676 0.4235054
0.0086517185 0.066835135 0.42566779
0.40531343 0.068993926 0.42508799
-0.0029371856 0.087761439 0.42660791
0.011469974 0.088947661 0.42730027
0.39764473 0.088959128 0.4264532
0.41025025 0.08957763 0.42684409
-0.0017328358 0.11243863 0.42715499
0.012529941 0.1124671 0.42706746
0.39748695 0.11192763 0.42646742
0.40980092 0.11284976 0.4267067
-0.002690878 0.13899486 0.4266521
0.012442647 0.13704786 0.42722708
0.025520407 0.14625102 0.42714423
0.39768615 0.13683227 0.42667478
0.410833 0.13723916 0.42690349
-0.0027384125 0.1622915 0.42638692
0.011836555 0.16264686 0.42746344
0.025695056 0.16286868 0.42563838
0.39824536 0.1609575 0.4265165
0.4097155 0.16254604 0.42692927
-0.00222384 0.19029336 0.42619067
0.011817986 0.18698628 0.42736748
0.026071936 0.18720636 0.42602342
0.39775735 0.18636192 0.42667833
0.40967458 0.18812589 0.42701873
-0.0028255754 0.21326531 0.42650026
0.012713362 0.21229883 0.42764956
0.026320159 0.210868 0.4258877
0.39773268 0.21232463 0.42640096
0.40995455 0.21374761 0.42695668
-0.0032783141 0.237138 0.42693806
0.012797572 0.23849569 0.42757332
0.02610898 0.2358634 0.42616972
0.39650896 0.23735012 0.42578095
0.41039854 0.2381023 0.42690167
-0.0035717702 0.26269147 0.42623356
0.013154279 0.26237914 0.42734188
0.026842892 0.26072037 0.4256019
0.39689508 0.26127747 0.42653623
0.4100365 0.26241159 0.42678225
-0.0037170458 0.28898734 0.42612261
0.012130016 0.28663361 0.42765793
0.02604571 0.28569311 0.42527431
0.39714164 0.28532895 0.42631105
0.41090536 0.2877683 0.42683998
-0.0034611044 0.31147179 0.42675298
0.013343173 0.31270891 0.42715463
0.39671534 0.31186223 0.42647988
0.4104923 0.31294686 0.4268254
-0.0036323667 0.32971293 0.42612731
0.014394339 0.33251929 0.42731595
0.39898419 0.32811359 0.42634615
0.40917271 0.32949635 0.42644656
0.019128134 0.36603841 0.43671128
0.038306445 0.36590615 0.43657014
0.06299556 0.36587942 0.43618193
0.087575376 0.36587036 0.43625313
0.11270259 0.36613116 0.43669474
0.13766198 0.36600637 0.4366228
0.16251898 0.36583138 0.43625551
0.18772061 0.36580157 0.43630138
0.21279487 0.36563069 0.43641013
0.23745914 0.36577874 0.43638724
0.26227465 0.36580643 0.43658
0.2876426 0.36579266 0.43621108
0.31248686 0.36560348 0.43661076
0.33734301 0.3656103 0.43631604
0.36243543 0.36573133 0.43673983
0.38715768 0.36560801 0.43625763
0.40238553 0.36775261 0.43663666
0.020689135 0.37869903 0.4412522
0.033457801 0.37924197 0.44216195
0.063197412 0.37691489 0.44513199
0.088170767 0.37721872 0.44549826
0.11257812 0.37741846 0.44552249
0.13820261 0.37707597 0.44515741
0.16219608 0.37720296 0.44538945
0.18747941 0.37750751 0.44554648
0.21200977 0.37707347 0.44451821
0.23724429 0.37738851 0.4450843
0.26207143 0.37749937 0.44543314
0.28684014 0.37746316 0.44567326
0.31248236 0.37743112 0.44511965
0.33818251 0.37714139 0.4450376
0.36301014 0.37745348 0.44506454
0.38927951 0.37918738 0.44150874
0.40227088 0.37784207 0.44535065
0.019819392 0.37100956 0.45849505
0.037681747 0.37112069 0.45856375
0.062194068 0.37138411 0.45828083
0.087315544 0.37102801 0.45830962
0.11249517 0.37123138 0.45841336
0.13732253 0.371178 0.45834568
0.1626424 0.37128767 0.45851713
0.18755668 0.37087563 0.45792857
0.21206014 0.37100592 0.45789424
0.23721927 0.37120366 0.45880634
0.26228923 0.37101096 0.45818505
0.28710979 0.37093318 0.45826074
0.31264642 0.37085024 0.45870417
0.33794844 0.37077084 0.45862141
0.36223561 0.37101179 0.45837751
0.38744491 0.3704206 0.45931998
0.40192086 0.37190911 0.4582988
0.01952986 0.38402238 0.46425578
0.036768343 0.38394877 0.46439922
0.062336504 0.3821255 0.46424162
0.087333858 0.38190934 0.46438143
0.11228814 0.38199618 0.46400815
0.13724096 0.38217333 0.46433699
0.16226591 0.38196793 0.46428394
0.18717729 0.38186339 0.46447182
0.21237807 0.38185853 0.46405274
0.23753835 0.38203886 0.4642508
0.26257506 0.38219392 0.46466273
0.28753433 0.38183731 0.46451756
0.3125641 0.38176161 0.46416694
0.33778402 0.38190699 0.46430647
0.36278376 0.38196754 0.46488035
0.38827693 0.38447616 0.4637197
0.40206003 0.38448602 0.46403068
0.028856993 0.40042225 0.47469965
0.38876995 0.40048072 0.47418156
0.014790013 0.37319738 0.47701913
0.032256488 0.3737182 0.47701278
0.058794588 0.37427703 0.47659817
0.084714949 0.3743028 0.47714734
0.11202329 0.37442195 0.47702241
0.13810453 0.37426761 0.47656181
0.16019626 0.37430286 0.47714734
0.19005409 0.37441355 0.4769924
0.21714807 0.374439 0.47642806
0.23520507 0.37450677 0.47634417
0.2626352 0.37430286 0.47714734
0.28728804 0.37443677 0.47690186
0.30932465 0.37424949 0.4764913
0.33811653 0.37430286 0.47714734
0.36501554 0.37442613 0.47686338
0.38894117 0.37272969 0.47751486
0.019355254 0.3897717 0.48634377
0.037783183 0.38954768 0.48669094
0.062307511 0.389902 0.48695159
0.087769791 0.38968727 0.48663491
0.11250077 0.38988927 0.48684472
0.13754721 0.38948795 0.48664027
0.16251898 0.38976687 0.48690876
0.18750441 0.38962483 0.48685235
0.21266678 0.38948649 0.48689353
0.23756392 0.38950679 0.48677194
0.26241753 0.38954329 0.48717731
0.28748435 0.38977551 0.48692459
0.31237859 0.38945919 0.48712254
0.33727461 0.38917267 0.48677048
0.36242875 0.38936353 0.48730713
0.38736156 0.38928276 0.48651078
0.40228969 0.3905057 0.48598367
0.021054009 0.40378749 0.49372292
0.032864403 0.40317622 0.49218768
0.062683649 0.40135095 0.49692446
0.088294022 0.40150967 0.4963682
0.1117171 0.40158194 0.49624267
0.13794135 0.40138417 0.49582875
0.16395295 0.40166527 0.4963181
0.18799502 0.40174285 0.49565986
0.21204416 0.40156505 0.49617711
0.23741466 0.40155849 0.495841
0.26221189 0.40158498 0.49584389
0.28553104 0.40193996 0.49578556
0.31270972 0.40182555 0.49605244
0.33774376 0.40180516 0.49524727
0.36331707 0.40192041 0.4960537
0.38931495 0.4034887 0.49265769
0.4023892 0.40372348 0.49604768
0.019679392 0.39539683 0.5095017
0.037959319 0.39524737 0.50955462
0.062492065 0.39552841 0.50913912
0.086956903 0.39518058 0.50849062
0.11229394 0.39513278 0.50876528
0.13769661 0.39526105 0.50900674
0.16261303 0.39546281 0.50960189
0.18715984 0.39532271 0.50903243
0.21220613 0.39543283 0.50923657
0.23726478 0.39525229 0.50929976
0.26264733 0.39519858 0.50908679
0.28795099 0.3952747 0.5092442
0.31268519 0.39513645 0.50935608
0.33741677 0.39527982 0.50907487
0.36213073 0.39518386 0.50946862
0.38733205 0.39452091 0.51005554
0.40247041 0.39688316 0.50931811
0.019628149 0.40845236 0.51442623
0.036970146 0.4079479 0.51427472
0.062413532 0.4061802 0.51455498
0.08773157 0.40613437 0.51450062
0.11258042 0.40596569 0.51464307
0.13725741 0.40618068 0.51466691
0.16189487 0.40626892 0.51487738
0.18789288 0.40608075 0.51454878
0.21261089 0.40590417 0.51459181
0.23732923 0.40605471 0.51435077
0.26271963 0.40615061 0.51470387
0.28778434 0.40595353 0.51482809
0.31214961 0.40574992 0.51459122
0.33728468 0.40600285 0.51465631
0.36231837 0.40586969 0.51465511
0.3880111 0.40875107 0.51381207
0.40190488 0.40651694 0.51339799
0.021938071 0.39894301 0.53494096
0.032144882 0.39848596 0.52823788
0.058670413 0.39951533 0.52815115
0.085053019 0.39915541 0.52801353
0.11341731 0.39881432 0.52703488
0.1362423 0.39889461 0.52643901
0.16093078 0.39909598 0.52601445
0.18329573 0.39903596 0.52727282
0.20402578 0.39924443 0.52910018
0.23383574 0.39918175 0.52687824
0.26038581 0.39908877 0.52671498
0.28734785 0.39934433 0.52635449
0.31165281 0.39913425 0.52762157
0.33860168 0.39899707 0.52782214
0.36689723 0.39862016 0.52667099
0.38760313 0.39885098 0.52791631
0.019431433 0.41397771 0.53639632
0.03771181 0.41356647 0.53672147
0.062462699 0.41354701 0.53732961
0.087304264 0.41355437 0.53730327
0.11247597 0.41374093 0.5375849
0.1375608 0.41363102 0.53757131
0.16270244 0.41339836 0.53728491
0.18767965 0.4133327 0.53743023
0.2127846 0.413463 0.53737444
0.23771751 0.41336691 0.53754288
0.26269236 0.41325536 0.53730977
0.28763446 0.41330594 0.53756011
0.31256714 0.41343489 0.53761131
0.33759588 0.41307184 0.53718102
0.36245379 0.41302857 0.53744745
0.38771087 0.41353211 0.53664458
0.40252748 0.41353706 0.53622985
0.021007346 0.42758033 0.5441798
0.031413723 0.42787626 0.54320717
0.065183811 0.42579091 0.54828465
0.086618908 0.42585278 0.54808742
0.11115459 0.42597446 0.5479449
0.1361149 0.42600891 0.54744482
0.16418926 0.4261024 0.54774392
0.18841314 0.42627659 0.54837024
0.21292593 0.42622215 0.54797685
0.23590735 0.42597324 0.54763997
0.26249713 0.42590165 0.54713279
0.28796902 0.4271152 0.54798913
0.31211311 0.42603058 0.54737359
0.33659211 0.42642039 0.54683268
0.36373615 0.42604738 0.54595363
0.38877699 0.42802617 0.54448754
0.40167189 0.42794377 0.54404008
0.01993943 0.41951302 0.56015319
0.037645511 0.41955939 0.56042582
0.062226351 0.42008466 0.55992937
0.087355532 0.41981637 0.55984449
0.11257962 0.41988727 0.56004101
0.13765524 0.42006639 0.5605796
0.16220477 0.41993704 0.56003404
0.18716221 0.41994777 0.56011152
0.21228875 0.41986403 0.56043762
0.23750152 0.41987011 0.56017727
0.2626456 0.41985798 0.56002045
0.28763497 0.41979995 0.56026322
0.31272912 0.41985819 0.56033862
0.33768156 0.41968453 0.55982363
0.36243722 0.41991612 0.56049132
0.3872194 0.41900361 0.56072867
0.40258738 0.42012635 0.55888742
0.019736664 0.43127117 0.56357497
0.036490228 0.43109384 0.56420863
0.062557988 0.42954901 0.56442565
0.087346829 0.42946735 0.56440175
0.11247289 0.42947522 0.56466579
0.13736361 0.42962348 0.56480402
0.1621574 0.42957979 0.56521332
0.18754826 0.4297497 0.56454176
0.21242473 0.42956382 0.56526917
0.23722683 0.42960382 0.56465638
0.26243469 0.42956981 0.56509137
0.28760558 0.4296014 0.56514233
0.31280872 0.42944446 0.56498706
0.33727449 0.42955092 0.56528801
0.36274755 0.42988041 0.56572652
0.38819772 0.43188041 0.56376785
0.40254289 0.43013451 0.56373727
0.021273928 0.42338419 0.57710373
0.035372291 0.42304513 0.57779312
0.059033468 0.42381823 0.5776962
0.087937683 0.42380276 0.57737827
0.11181355 0.42359698 0.57732058
0.14009593 0.42411354 0.57753932
0.16262168 0.42408225 0.57727766
0.18771097 0.42421594 0.57773024
0.21065597 0.42409864 0.57794267
0.23652594 0.42385364 0.57759744
0.26107058 0.42387521 0.57716346
0.29069689 0.42390168 0.57804328
0.31233999 0.42370921 0.57754594
0.33640957 0.42419964 0.57687342
0.36259335 0.42407191 0.57710838
0.38735455 0.42321813 0.577416
0.01959613 0.42978165 0.57682979
0.037159108 0.42841217 0.57776099
0.061482694 0.42900828 0.57768559
0.085665047 0.42925045 0.57664973
0.11293995 0.42853987 0.5771026
0.13680087 0.42906532 0.57741183
0.16475686 0.42926016 0.5769344
0.18618862 0.42845136 0.5769875
0.21355994 0.42949441 0.57700318
0.23879196 0.42846227 0.5771302
0.26356024 0.42836976 0.57689047
0.28800997 0.4283573 0.57694471
0.31162357 0.42840651 0.57677847
0.3366465 0.42886379 0.57680941
0.36472219 0.42792255 0.57661235
0.38556686 0.42737132 0.57648861
0.40221292 0.42868882 0.57855886
