# .PCD v0.7 - Point Cloud Data file format
VERSION 0.7
FIELDS x y z
SIZE 4 4 4
TYPE F F F
COUNT 1 1 1
WIDTH 1372
HEIGHT 1
VIEWPOINT 0 0 0 1 0 0 0
POINTS 1372
DATA ascii
-0.20502619 -0.32959315 0.12887779
-0.19132715 -0.33059821 0.12781654
-0.17091452 -0.32726201 0.12601978
-0.30919483 -0.31298068 0.13026635
-0.28529465 -0.31177351 0.13339068
-0.26859596 -0.30851528 0.13130648
-0.2305489 -0.30315825 0.13037618
-0.21073338 -0.31077206 0.13406219
-0.1879096 -0.31149957 0.13107848
-0.17288978 -0.31148988 0.12772417
-0.30450144 -0.29049805 0.13248895
-0.28709221 -0.28720438 0.13445772
-0.26169667 -0.28869215 0.13663489
-0.2375596 -0.28403994 0.13531731
-0.21288498 -0.28814358 0.13861075
-0.1915258 -0.28807613 0.13382488
-0.28157589 -0.26434553 0.13467294
-0.2630375 -0.2616545 0.13693587
-0.23681849 -0.26613575 0.13603806
-0.21230739 -0.26288274 0.13642365
-0.19775988 -0.27145296 0.13442002
-0.35540375 -0.228751 0.12571947
-0.33504727 -0.23150466 0.13025524
-0.31058291 -0.23622741 0.13230407
-0.28723249 -0.23881878 0.13517983
-0.26431176 -0.23682526 0.13753729
-0.23400953 -0.23279639 0.13675748
-0.21173659 -0.23957609 0.13559479
-0.18881522 -0.23798168 0.13679618
-0.1648472 -0.23277985 0.13211654
-0.14477868 -0.2296578 0.12768392
-0.35508704 -0.21761398 0.12622501
-0.33311105 -0.2097079 0.12999931
-0.30928868 -0.21211261 0.13191776
-0.2881662 -0.21497913 0.13411893
-0.26117629 -0.21387462 0.13574447
-0.2365399 -0.21283072 0.13602404
-0.21383254 -0.21567905 0.13576753
-0.18837613 -0.212238 0.13528967
-0.16360293 -0.21106254 0.13138972
-0.1447119 -0.21460132 0.12757775
-0.35473338 -0.19727141 0.1254335
-0.33507687 -0.19775337 0.1275676
-0.3221966 -0.19851242 0.12816319
-0.258683 -0.18858521 0.13450997
-0.2358478 -0.18825226 0.13655938
-0.22257617 -0.1871565 0.13179801
-0.15779395 -0.1959582 0.12703881
-0.14659622 -0.19539583 0.12609406
-0.25876194 -0.16406685 0.13215549
-0.23619908 -0.16535926 0.13278776
-0.22275862 -0.16199672 0.12778674
-0.2581962 -0.14251702 0.12815014
-0.23761283 -0.14235035 0.12824853
-0.22378469 -0.14311907 0.12611271
-0.28511128 -0.28012472 0.15008229
-0.26031306 -0.28096867 0.15286417
-0.23816617 -0.27854553 0.15337732
-0.21968865 -0.27857652 0.15117219
-0.28226215 -0.26719955 0.15269019
-0.26003891 -0.25907788 0.16224433
-0.23699528 -0.26189953 0.16136181
-0.21789773 -0.25985897 0.15654387
-0.28611729 -0.23986194 0.15383115
-0.26171446 -0.23647003 0.16224316
-0.23429504 -0.23196323 0.1641942
-0.21625617 -0.23898828 0.15869513
-0.1981277 -0.24248362 0.1509904
-0.2826159 -0.2198102 0.15319721
-0.25895679 -0.21855864 0.15882029
-0.23848891 -0.2183101 0.15923914
-0.21451971 -0.21907945 0.15301278
-0.1993686 -0.21908736 0.15028143
-0.24105617 -0.19645929 0.15082353
-0.2583037 -0.25808489 0.1868664
-0.236836 -0.25983167 0.18703501
-0.22151189 -0.25378841 0.18876539
-0.26105034 -0.23690701 0.18749246
-0.23454262 -0.23198664 0.18766487
-0.22138606 -0.2396019 0.18723577
-0.25495514 -0.22381985 0.18534273
-0.2413082 -0.22347647 0.18888521
-0.25835159 -0.25770119 0.21106781
-0.23642348 -0.25977919 0.21239322
-0.22184071 -0.25439438 0.21256366
-0.2610704 -0.23736002 0.21279827
-0.23377755 -0.23280853 0.21246225
-0.22129709 -0.23997135 0.21192184
-0.25301006 -0.22345434 0.21211357
-0.24077785 -0.22359221 0.2128479
-0.25980172 -0.25823429 0.2369848
-0.23662536 -0.26136705 0.23738557
-0.22122076 -0.2551845 0.23806006
-0.27588332 -0.24487588 0.24206135
-0.26241776 -0.23646943 0.23749678
-0.23316628 -0.23329288 0.23603937
-0.22064449 -0.23961186 0.23897873
-0.25520119 -0.22266312 0.2385077
-0.24021436 -0.22214063 0.23870337
-0.27607191 -0.25273901 0.25095853
-0.2594769 -0.25872818 0.26247776
-0.23638698 -0.26187938 0.263298
-0.22124706 -0.2557973 0.26246494
-0.2621451 -0.23635432 0.26248991
-0.23244417 -0.23281436 0.2627697
-0.22045338 -0.23810768 0.26288137
-0.25558215 -0.22271262 0.26135266
-0.23980634 -0.22218636 0.26237369
-0.25818506 -0.2591359 0.2879712
-0.23569159 -0.26222473 0.28831166
-0.22063719 -0.25503141 0.28885922
-0.27659243 -0.2475532 0.27713948
-0.26158699 -0.23675025 0.28749391
-0.23208216 -0.23334312 0.28853542
-0.22031721 -0.23840199 0.28748435
-0.25422144 -0.22262757 0.28793615
-0.24034579 -0.22188081 0.28745019
-0.22407424 -0.22486891 0.29601872
-0.26171184 -0.40012765 0.32436591
-0.24635583 -0.40152681 0.32482558
-0.22138958 -0.4000082 0.32442927
-0.27738807 -0.37765431 0.32241136
-0.263598 -0.38478673 0.32302916
-0.23958816 -0.38520357 0.32299677
-0.218312 -0.38458991 0.32327655
-0.27803811 -0.3582958 0.32075316
-0.26224166 -0.36221707 0.3209171
-0.23818833 -0.36200461 0.32116795
-0.21634029 -0.36147746 0.32122892
-0.27866808 -0.33598462 0.31944963
-0.26271006 -0.33766076 0.31943777
-0.23867936 -0.33780184 0.3197653
-0.21581881 -0.33730662 0.31948298
-0.27898231 -0.31023246 0.31924245
-0.26289994 -0.31339532 0.31828773
-0.2383725 -0.31269094 0.31859881
-0.21551786 -0.31260863 0.3181349
-0.27942055 -0.28662175 0.32070774
-0.26263252 -0.28847349 0.317958
-0.23868594 -0.28860092 0.31855229
-0.21571904 -0.28815737 0.31782225
-0.27934024 -0.26245341 0.32108742
-0.26149035 -0.26188099 0.31449652
-0.23718166 -0.26493534 0.31366023
-0.21809363 -0.2604911 0.31535715
-0.27725694 -0.23758967 0.32085833
-0.2627162 -0.23666097 0.3131054
-0.23184335 -0.23235765 0.31343865
-0.21897548 -0.23843949 0.31358427
-0.27878651 -0.21563344 0.321601
-0.25959376 -0.21725169 0.3180289
-0.23910749 -0.21930049 0.31437972
-0.2194737 -0.2176715 0.32108039
-0.27804434 -0.19572383 0.3247202
-0.27031696 -0.19391398 0.32497776
-0.22576782 -0.19241825 0.32454562
-0.22299166 -0.19700676 0.32396463
-0.28007799 -0.45074397 0.34982228
-0.26196519 -0.45201316 0.3495352
-0.23906316 -0.45226225 0.3492299
-0.2090607 -0.45012981 0.34863538
-0.33398274 -0.42929968 0.3495487
-0.31143007 -0.43341872 0.34860936
-0.28688118 -0.43530601 0.34750324
-0.26297194 -0.43219385 0.34579509
-0.2382891 -0.43281043 0.34550759
-0.21499108 -0.43337503 0.34679019
-0.18949339 -0.43551329 0.34841129
-0.16845617 -0.42899743 0.3483454
-0.14473468 -0.42564213 0.34967524
-0.35806629 -0.40691751 0.34886593
-0.33714327 -0.41195148 0.34844133
-0.31278247 -0.41270933 0.3480306
-0.28459209 -0.41175285 0.34304494
-0.2632679 -0.41213074 0.33684015
-0.23794273 -0.41278511 0.3365345
-0.21482018 -0.41178298 0.3381604
-0.18705817 -0.41330314 0.34773627
-0.16321623 -0.41251823 0.34809616
-0.1401041 -0.4084889 0.34828013
-0.38162675 -0.38373479 0.34921217
-0.36152607 -0.38735044 0.34834528
-0.33681884 -0.38747466 0.34833023
-0.31259531 -0.38683215 0.34802046
-0.28444251 -0.38700211 0.34139577
-0.26501074 -0.38735974 0.33420497
-0.23801272 -0.38805345 0.3323321
-0.21370475 -0.38678578 0.33544916
-0.18347681 -0.38790309 0.34774965
-0.16106515 -0.38783625 0.34808519
-0.13681516 -0.3877883 0.34787905
-0.11754746 -0.38522035 0.34778491
-0.40306243 -0.35451818 0.34861898
-0.3882286 -0.36218923 0.34860331
-0.36160734 -0.36229214 0.34824696
-0.33699492 -0.36199337 0.34843087
-0.31250131 -0.36161095 0.34805861
-0.28445914 -0.36164773 0.3421022
-0.26655465 -0.36242568 0.33472306
-0.23849097 -0.36333326 0.33049735
-0.21275316 -0.36243489 0.33583331
-0.18482152 -0.36150086 0.34845245
-0.15971574 -0.3618224 0.34793159
-0.13600716 -0.36117354 0.34765211
-0.11314416 -0.362335 0.34787968
-0.092825934 -0.35651326 0.34822157
-0.40677866 -0.33621359 0.34840515
-0.38783038 -0.3370553 0.34832966
-0.36230737 -0.33701169 0.34829625
-0.33698252 -0.33815324 0.34828791
-0.31156322 -0.33788067 0.34808251
-0.28375307 -0.33676869 0.34217122
-0.26691756 -0.33732715 0.33417681
-0.23729162 -0.33831561 0.32961196
-0.2115826 -0.33768502 0.33658099
-0.18448548 -0.3339172 0.34869617
-0.16129805 -0.33660045 0.34802425
-0.13737561 -0.33619162 0.34780681
-0.11281035 -0.33720511 0.34781903
-0.089937337 -0.33480763 0.34774554
-0.41106096 -0.31293958 0.34859473
-0.38885152 -0.31230712 0.34825379
-0.36202776 -0.3120119 0.34816265
-0.33652633 -0.31246716 0.34825814
-0.31187427 -0.31189752 0.34800223
-0.2844584 -0.31261012 0.3433544
-0.26831624 -0.31257129 0.33443189
-0.23911572 -0.31265771 0.32879794
-0.21212338 -0.31290278 0.33509722
-0.18537387 -0.31055665 0.34814295
-0.15928209 -0.3122893 0.34810138
-0.1360705 -0.31137016 0.34793788
-0.11380868 -0.31351954 0.34746987
-0.087988086 -0.31245497 0.34774607
-0.070378847 -0.30967411 0.34830311
-0.42633498 -0.28708494 0.34870028
-0.41135067 -0.28830719 0.34837896
-0.38865447 -0.28874213 0.34831369
-0.36279067 -0.28768408 0.34823018
-0.33689708 -0.28535908 0.34817746
-0.31072253 -0.28683501 0.34807864
-0.28353044 -0.28771463 0.34113494
-0.26879597 -0.28821144 0.3342514
-0.23921694 -0.28773057 0.32857776
-0.21042378 -0.28759113 0.33504301
-0.18637988 -0.28761286 0.34694237
-0.16089246 -0.28642991 0.34815991
-0.13531394 -0.28807434 0.34753609
-0.11153527 -0.28889221 0.34760574
-0.086317636 -0.28741923 0.34754416
-0.069543429 -0.28714478 0.34753507
-0.42787707 -0.25937223 0.34859875
-0.41210908 -0.26391086 0.34838298
-0.38936478 -0.26306656 0.34822536
-0.3636435 -0.26286379 0.34805864
-0.3376649 -0.26139152 0.34813768
-0.3113994 -0.26261047 0.34799916
-0.28332737 -0.26273975 0.33958519
-0.27042952 -0.26247528 0.33505148
-0.23688869 -0.26805195 0.32861835
-0.21004833 -0.26236597 0.33600777
-0.18991746 -0.2620517 0.34747601
-0.16205917 -0.26159915 0.34767723
-0.13553388 -0.26371035 0.34757647
-0.11257391 -0.26347902 0.34748119
-0.087157257 -0.26224166 0.34749538
-0.066785313 -0.26268807 0.34792694
-0.42778349 -0.23601913 0.34887108
-0.41142219 -0.23790801 0.34836352
-0.38971543 -0.23798947 0.34817913
-0.36384556 -0.23777167 0.34812528
-0.3383947 -0.23693863 0.34802741
-0.31150621 -0.23764499 0.34787482
-0.28322732 -0.23709823 0.33992007
-0.26944891 -0.23654956 0.33488503
-0.23071918 -0.23201856 0.33200744
-0.2101734 -0.2375249 0.33599061
-0.18880874 -0.23928057 0.34687582
-0.16339098 -0.23710689 0.34802479
-0.1382755 -0.23816329 0.34751284
-0.11353282 -0.24012525 0.3474116
-0.086998142 -0.23849384 0.34738797
-0.06627126 -0.23943369 0.34826949
-0.42754641 -0.21265535 0.34914723
-0.41049337 -0.21256106 0.34804159
-0.38954446 -0.21283187 0.34814879
-0.36360869 -0.21291868 0.34810355
-0.33843943 -0.21179484 0.34807169
-0.31248078 -0.21281876 0.34788066
-0.28252971 -0.21204039 0.34006047
-0.26558879 -0.21183459 0.33463615
-0.23798528 -0.21238527 0.33287793
-0.21159163 -0.21244051 0.33736092
-0.1877569 -0.21217293 0.34789154
-0.16247047 -0.21401489 0.34787187
-0.13728754 -0.21263935 0.34735352
-0.11215573 -0.21368113 0.34758031
-0.084968418 -0.21316488 0.3472099
-0.066001005 -0.2145718 0.34823161
-0.42843696 -0.19053034 0.34898785
-0.40991142 -0.18736692 0.34802279
-0.38909352 -0.18736476 0.34821478
-0.3638393 -0.18861794 0.34816709
-0.33816978 -0.18689814 0.34800065
-0.31132159 -0.18759455 0.3477788
-0.28193501 -0.18703304 0.34183812
-0.26431307 -0.18723807 0.33665365
-0.23756766 -0.18671921 0.33810988
-0.21278073 -0.18760481 0.33891246
-0.18808474 -0.18955258 0.34712097
-0.16318654 -0.18809381 0.34821829
-0.13752499 -0.18679331 0.34747326
-0.11219529 -0.18777889 0.34763408
-0.086261824 -0.18757996 0.34758869
-0.068380512 -0.18814363 0.34778193
-0.42922148 -0.16988629 0.34819961
-0.41432711 -0.16978548 0.34813264
-0.38860893 -0.17217928 0.34793863
-0.36426508 -0.17237113 0.34773013
-0.33586687 -0.17143644 0.34837568
-0.30995899 -0.17162849 0.34817892
-0.27926898 -0.16504291 0.34220788
-0.26165152 -0.16487752 0.34214631
-0.23680662 -0.16570823 0.34148026
-0.21349795 -0.16498831 0.34260568
-0.1759128 -0.17499498 0.34834579
-0.16507532 -0.17301188 0.34893924
-0.14489256 -0.17223839 0.34779558
-0.11775815 -0.17186999 0.34862572
-0.082620919 -0.17056558 0.3468349
-0.066364154 -0.16822369 0.34790805
-0.27916372 -0.14225106 0.34714782
-0.26156121 -0.1400919 0.34614274
-0.23737533 -0.13934834 0.34612778
-0.21376066 -0.14205381 0.34677052
-0.25913012 -0.12156585 0.34969929
-0.23765968 -0.12369776 0.34896296
-0.30533135 -0.45118704 0.3686538
-0.28567198 -0.45217782 0.36600861
-0.26177496 -0.45427585 0.36534202
-0.23815724 -0.45500821 0.36485389
-0.21447083 -0.45288447 0.36579731
-0.19434461 -0.45126861 0.36658671
-0.3513597 -0.4268705 0.36955392
-0.33463287 -0.4313367 0.36505619
-0.31233734 -0.43781123 0.36229575
-0.28814989 -0.43954295 0.35855407
-0.26210389 -0.43728381 0.35645905
-0.23709531 -0.43728042 0.35605216
-0.21245888 -0.43839315 0.35854813
-0.1874592 -0.43972987 0.36181566
-0.16333939 -0.43318155 0.3636187
-0.1448734 -0.42803895 0.36610797
-0.37767744 -0.40209761 0.36663222
-0.36153784 -0.40977344 0.36362329
-0.33889836 -0.41396147 0.35888606
-0.31232801 -0.41175494 0.35635453
-0.28755039 -0.41193068 0.3549284
-0.26786926 -0.41592467 0.35357377
-0.23695485 -0.42328626 0.35446078
-0.20920025 -0.41302285 0.35696483
-0.18696713 -0.41188931 0.35830355
-0.16153398 -0.41235137 0.3578054
-0.13754477 -0.41284156 0.36296603
-0.11917379 -0.40504104 0.36558542
-0.40043995 -0.37612015 0.37150311
-0.38487825 -0.38638803 0.36380321
-0.36378923 -0.38840255 0.35722584
-0.33767769 -0.38728285 0.35597822
-0.31185579 -0.38691097 0.35582396
-0.28823987 -0.38745037 0.35450926
-0.27125159 -0.38530031 0.35320884
-0.20755066 -0.38635486 0.35748678
-0.18670881 -0.38682041 0.35798851
-0.16138783 -0.38716689 0.3575187
-0.13667627 -0.38797295 0.35771501
-0.1110391 -0.38814712 0.36284301
-0.096122764 -0.3814722 0.36782432
-0.40617183 -0.35847706 0.36479223
-0.38968799 -0.36426747 0.36001897
-0.3632713 -0.36327526 0.35651562
-0.33752823 -0.36289227 0.35535461
-0.31185231 -0.3623198 0.35523838
-0.28734398 -0.36302662 0.35386664
-0.2711314 -0.36060512 0.35465431
-0.20820023 -0.36109689 0.35732689
-0.18644659 -0.36279011 0.35821202
-0.16147777 -0.36303824 0.35763538
-0.13659331 -0.36316794 0.35769823
-0.11083228 -0.36339769 0.35858935
-0.088845685 -0.36154673 0.36461681
-0.073399931 -0.35240412 0.36414963
-0.42592338 -0.32837096 0.36763087
-0.41181409 -0.33717433 0.36193508
-0.38743615 -0.33761334 0.35656393
-0.36216491 -0.33857501 0.35663927
-0.33690751 -0.3377724 0.35565868
-0.31088173 -0.33701372 0.35544282
-0.2873835 -0.33730558 0.35438868
-0.27071097 -0.33563781 0.35395035
-0.20790307 -0.33670953 0.35777172
-0.18658596 -0.33730409 0.35843065
-0.16109504 -0.33808953 0.35786188
-0.13605089 -0.33762732 0.3583619
-0.11112266 -0.33784837 0.35821581
-0.085125595 -0.33821014 0.36093739
-0.071004055 -0.33394223 0.36495927
-0.42846072 -0.30912986 0.36589056
-0.41464645 -0.31251699 0.36047131
-0.38741893 -0.3125658 0.35626766
-0.36139217 -0.31323072 0.35660499
-0.33563337 -0.31210732 0.35600707
-0.31119391 -0.31203666 0.35564753
-0.28728345 -0.31207857 0.35476297
-0.27056038 -0.31120858 0.35391793
-0.2083126 -0.3124429 0.35744613
-0.18617555 -0.3120102 0.35895109
-0.16030271 -0.31210792 0.35862187
-0.13589844 -0.31250474 0.35808069
-0.11120295 -0.31326562 0.3587788
-0.086282656 -0.31271306 0.35896811
-0.067178756 -0.31149238 0.36404926
-0.43065327 -0.28727528 0.36442196
-0.41442925 -0.28690979 0.35862494
-0.38662651 -0.28712919 0.35663694
-0.36208045 -0.28835952 0.356428
-0.33674335 -0.2878021 0.35672677
-0.31143993 -0.28705809 0.3560479
-0.28869399 -0.28748837 0.3551302
-0.27126828 -0.28550333 0.35357881
-0.20746352 -0.28864235 0.35796583
-0.18661153 -0.28704 0.35910362
-0.16079271 -0.28759938 0.35856915
-0.13548927 -0.28743491 0.35840675
-0.11062051 -0.28798872 0.35810906
-0.087640882 -0.28734729 0.35816956
-0.06408108 -0.28716218 0.36331916
-0.43132037 -0.26219782 0.36346236
-0.41469395 -0.2625291 0.35864282
-0.38717312 -0.26225185 0.35671929
-0.36232179 -0.26352581 0.35591221
-0.33683488 -0.26320741 0.35692722
-0.31223741 -0.26307532 0.35612479
-0.28935668 -0.26277384 0.35543814
-0.27039427 -0.26186982 0.35325593
-0.20754056 -0.26321319 0.3574374
-0.18672703 -0.2629621 0.35924149
-0.16058634 -0.26275906 0.35848567
-0.1357948 -0.26289603 0.35819528
-0.11104593 -0.26266065 0.35849896
-0.087488227 -0.26233944 0.35829812
-0.062415048 -0.26235175 0.36323607
-0.049707282 -0.25672159 0.36489829
-0.43213448 -0.23715413 0.36340356
-0.41379413 -0.23728205 0.3581112
-0.38807845 -0.23773742 0.35656628
-0.36257029 -0.23793185 0.35646632
-0.33736375 -0.23708454 0.35701072
-0.31214544 -0.23718075 0.35644147
-0.28873321 -0.23733285 0.35527492
-0.27101368 -0.23834546 0.35308966
-0.20730263 -0.23797944 0.35775167
-0.1865152 -0.23754682 0.35927519
-0.16140349 -0.23693271 0.3586435
-0.1367601 -0.2370742 0.35816506
-0.1118325 -0.23770173 0.35807392
-0.08718612 -0.23755559 0.35823396
-0.061833914 -0.23670109 0.36316285
-0.049473003 -0.2327307 0.36790469
-0.43199062 -0.21164961 0.36359444
-0.414711 -0.21256152 0.35835472
-0.38743547 -0.21257824 0.35700551
-0.36217949 -0.21282728 0.35686573
-0.33663106 -0.21231247 0.35705289
-0.31181705 -0.2122812 0.35622868
-0.28827497 -0.21243115 0.3554689
-0.27221188 -0.21518679 0.35464191
-0.20632257 -0.21258944 0.35674348
-0.1863723 -0.21252316 0.35915095
-0.16162138 -0.21149573 0.35818702
-0.13723601 -0.21218506 0.35853213
-0.11164293 -0.21258697 0.35815167
-0.087659977 -0.21297343 0.35853902
-0.062040426 -0.21188264 0.36338657
-0.049356032 -0.21115254 0.37179312
-0.43180457 -0.18682079 0.36309078
-0.41382226 -0.18754628 0.35855627
-0.38780165 -0.18689504 0.35727328
-0.36289963 -0.18761079 0.35666317
-0.33677658 -0.18749084 0.35765862
-0.31175148 -0.18775192 0.35675064
-0.28840134 -0.18731292 0.35579598
-0.27226022 -0.19046432 0.35373005
-0.20660204 -0.18702774 0.35633692
-0.18665643 -0.18763311 0.35908085
-0.16153668 -0.18743148 0.35808495
-0.13747653 -0.1876061 0.35869983
-0.11227015 -0.18743894 0.35838428
-0.088038698 -0.18807071 0.35868248
-0.06218693 -0.18740882 0.36312601
-0.049572237 -0.1925655 0.37292981
-0.43271622 -0.16810361 0.36312798
-0.41307506 -0.1672799 0.36359644
-0.38754061 -0.16624308 0.36516806
-0.36285439 -0.16477592 0.36446303
-0.33783507 -0.16355026 0.36417791
-0.31337532 -0.16255876 0.36421138
-0.28773975 -0.16170599 0.3627784
-0.26657388 -0.15847999 0.35615009
-0.23827015 -0.15732096 0.35400012
-0.2101883 -0.16075128 0.36003962
-0.18733707 -0.16340248 0.36570928
-0.16268396 -0.16418147 0.36527517
-0.13725787 -0.16551694 0.36609197
-0.11300835 -0.16636613 0.36556888
-0.088976435 -0.16785851 0.3650749
-0.063117266 -0.16795863 0.36372328
-0.04854269 -0.16783062 0.36514625
-0.3844558 -0.14849846 0.37361509
-0.36256525 -0.1475565 0.37245086
-0.33761773 -0.14595041 0.37173483
-0.31192163 -0.14442447 0.37187415
-0.28169388 -0.13965027 0.363408
-0.2632789 -0.13676523 0.35994944
-0.23749267 -0.13746865 0.35828048
-0.21247478 -0.1371706 0.36155859
-0.18714845 -0.14377971 0.37176898
-0.16433993 -0.14756568 0.37112519
-0.138487 -0.14731495 0.37186363
-0.12262889 -0.14874722 0.37238327
-0.27929613 -0.11456969 0.36509696
-0.26399094 -0.11309335 0.36426309
-0.23801103 -0.1125348 0.36426988
-0.21366769 -0.11386124 0.36577803
-0.19875818 -0.11184541 0.3698597
-0.27937728 -0.09299235 0.36960974
-0.26335299 -0.089672573 0.36967048
-0.23837316 -0.088627949 0.36982939
-0.21466707 -0.089906812 0.37079301
-0.27573991 -0.073970497 0.3729521
-0.25796348 -0.072719455 0.37433767
-0.2295208 -0.071704485 0.37386128
-0.30666053 -0.45042083 0.38792431
-0.28487533 -0.45224413 0.38503635
-0.26208329 -0.45407063 0.38598815
-0.23828983 -0.45488819 0.38554409
-0.21401674 -0.45270351 0.3854984
-0.1938514 -0.4512952 0.38393837
-0.3515605 -0.42680001 0.38675681
-0.33495474 -0.43135187 0.38637012
-0.31210163 -0.43876863 0.38830721
-0.28799585 -0.44302803 0.39108783
-0.26264983 -0.44017148 0.39539355
-0.23634058 -0.44005957 0.39610842
-0.21024661 -0.44256115 0.3924841
-0.18659705 -0.44166654 0.38859758
-0.16344813 -0.43375102 0.38729703
-0.14581327 -0.42825958 0.38477111
-0.37818968 -0.40188587 0.38542935
-0.36083004 -0.41036329 0.38704342
-0.34116712 -0.41643959 0.39118329
-0.31405038 -0.41213575 0.39694926
-0.28715834 -0.41211802 0.39733997
-0.26310706 -0.41156441 0.39717525
-0.23717804 -0.41229171 0.39736399
-0.21179199 -0.41193572 0.39741728
-0.18714456 -0.41297737 0.39701506
-0.16041212 -0.4149451 0.39536041
-0.13669793 -0.41411832 0.38757172
-0.11966238 -0.40483922 0.38641113
-0.38556123 -0.38572845 0.38670436
-0.36621445 -0.3904402 0.39379415
-0.33931854 -0.3879621 0.39716426
-0.31406635 -0.38783398 0.39705718
-0.2868312 -0.38658524 0.39727437
-0.2625834 -0.38623419 0.3971675
-0.23667048 -0.38702327 0.39722693
-0.21128671 -0.38776958 0.39769813
-0.18712065 -0.38829416 0.39700839
-0.1627346 -0.38790572 0.39721933
-0.13740115 -0.38859394 0.39622721
-0.11044806 -0.38842344 0.38817549
-0.096307874 -0.38097197 0.38631034
-0.40635595 -0.35816231 0.3865521
-0.39141369 -0.36408952 0.39124763
-0.3647925 -0.36401734 0.39710534
-0.33915076 -0.36245576 0.39718452
-0.31391564 -0.36301684 0.39719847
-0.28727621 -0.3619146 0.39737564
-0.26259333 -0.36142027 0.39713094
-0.23792344 -0.36254862 0.3972148
-0.21157555 -0.3628872 0.39761356
-0.18761177 -0.36257982 0.39698574
-0.16384046 -0.3634927 0.39755228
-0.13847673 -0.36257234 0.39693555
-0.10957134 -0.36564848 0.39387831
-0.089005165 -0.36165822 0.38714287
-0.073974371 -0.35376805 0.38094753
-0.42548931 -0.3257125 0.38352627
-0.41212237 -0.3365204 0.38747615
-0.38940048 -0.33707383 0.39662388
-0.36445913 -0.33888191 0.3968839
-0.33889857 -0.33784845 0.39715073
-0.31360909 -0.33710933 0.39716363
-0.28641516 -0.33746332 0.39741367
-0.26280653 -0.33640781 0.39728254
-0.23778756 -0.33809564 0.39700508
-0.21101862 -0.33680114 0.39743176
-0.18807413 -0.33695185 0.39688823
-0.16531265 -0.33883095 0.39718923
-0.1395285 -0.33770666 0.39689907
-0.11346452 -0.3364284 0.39716509
-0.082473062 -0.33908167 0.38926739
-0.071373381 -0.33372083 0.38592574
-0.42858478 -0.30985036 0.38633808
-0.4163852 -0.31315395 0.38936988
-0.38908261 -0.31304696 0.39711228
-0.36484727 -0.31301832 0.39734277
-0.34026724 -0.31219244 0.39706731
-0.31465361 -0.31290129 0.3970972
-0.28672966 -0.31288737 0.39741182
-0.2624929 -0.31060115 0.39698398
-0.23759283 -0.31203905 0.39689448
-0.21102677 -0.31189662 0.39758089
-0.18657267 -0.31278315 0.39693791
-0.16371289 -0.31309971 0.39762142
-0.1384186 -0.31400409 0.39695853
-0.11427294 -0.31234768 0.39732367
-0.082241036 -0.31430638 0.3931962
-0.067085139 -0.31162775 0.38758284
-0.42964846 -0.28695554 0.3864513
-0.41604617 -0.28821522 0.39137354
-0.38929263 -0.28785357 0.39701021
-0.36440298 -0.28756252 0.39701438
-0.33973646 -0.28663191 0.39715219
-0.31377369 -0.28771028 0.39711505
-0.28657386 -0.28833979 0.39735723
-0.26296058 -0.28571025 0.39700037
-0.23769665 -0.2869176 0.39683634
-0.21067356 -0.28722405 0.39757261
-0.18579139 -0.28891322 0.39688858
-0.1626258 -0.28742725 0.39758751
-0.13829815 -0.288643 0.39697272
-0.1138241 -0.28913501 0.39737719
-0.086484119 -0.28787518 0.39737362
-0.064148746 -0.28772753 0.38764569
-0.43144706 -0.26175448 0.3863247
-0.41564083 -0.26276919 0.39396146
-0.38978621 -0.26269791 0.39715928
-0.36521497 -0.26240796 0.39721763
-0.34004965 -0.26216474 0.3973569
-0.31387365 -0.26236576 0.39696628
-0.28626752 -0.26295841 0.39751089
-0.26310608 -0.26167554 0.39748052
-0.23854899 -0.26177117 0.39713696
-0.210816 -0.26196447 0.39783114
-0.18443684 -0.26406682 0.39720654
-0.16150329 -0.2619088 0.39747941
-0.13817093 -0.2630538 0.39669043
-0.1143401 -0.26466352 0.3972128
-0.086925909 -0.2635029 0.39674142
-0.061854661 -0.26270786 0.38799742
-0.049875952 -0.25334227 0.37809092
-0.4320696 -0.2377937 0.38620773
-0.41469947 -0.23688859 0.39505848
-0.39092836 -0.23763579 0.39732522
-0.36510965 -0.23706813 0.39727777
-0.33951265 -0.23749316 0.39735937
-0.31449297 -0.23813732 0.39730427
-0.2861661 -0.23789172 0.39755771
-0.26277438 -0.23628689 0.39770755
-0.23796603 -0.23668906 0.39697838
-0.2109441 -0.23687203 0.39774892
-0.18477894 -0.23884055 0.39715323
-0.1613539 -0.2355978 0.3975119
-0.13888171 -0.23859768 0.39706922
-0.11320306 -0.23845945 0.39720652
-0.087055005 -0.23855618 0.39719123
-0.060550462 -0.23768729 0.38813955
-0.0498209 -0.23691136 0.38307977
-0.43174002 -0.21238352 0.38647124
-0.41511202 -0.21242838 0.39472604
-0.38972121 -0.21286632 0.39732343
-0.36517537 -0.21257348 0.3973814
-0.33967796 -0.21331064 0.397921
-0.31495574 -0.21363907 0.39726841
-0.28666443 -0.21171148 0.39763469
-0.26278055 -0.21167986 0.3976424
-0.23808096 -0.21209849 0.39717561
-0.21286313 -0.21191181 0.397735
-0.18646531 -0.21315268 0.39743537
-0.1610184 -0.2123549 0.39781395
-0.13753742 -0.21265578 0.39726114
-0.11323889 -0.21260503 0.3974483
-0.086084373 -0.21161324 0.39703217
-0.060627434 -0.21230693 0.38801813
-0.04963927 -0.20729804 0.38519114
-0.43191054 -0.18741576 0.38675228
-0.41525334 -0.18802418 0.39509356
-0.38998055 -0.18847708 0.39752921
-0.36505562 -0.18820277 0.39766732
-0.33969185 -0.18928085 0.39805877
-0.31415233 -0.18891121 0.39749855
-0.28651324 -0.18719569 0.39794156
-0.26255247 -0.18605269 0.39782476
-0.23785748 -0.18703362 0.3973017
-0.21296437 -0.18583047 0.39788604
-0.18732341 -0.18757285 0.3974064
-0.16295148 -0.18791719 0.39761466
-0.13835979 -0.18684836 0.39735499
-0.11329009 -0.18800439 0.39744884
-0.084232032 -0.18857864 0.39720222
-0.060099311 -0.18726481 0.38700649
-0.049469203 -0.17621744 0.3815746
-0.43282959 -0.16676222 0.38822126
-0.41182631 -0.16181664 0.38823271
-0.38999596 -0.15934531 0.38526773
-0.36361259 -0.16084492 0.38506266
-0.33813554 -0.16061747 0.38566697
-0.3142679 -0.1615309 0.3872287
-0.28808784 -0.16126095 0.38817632
-0.26320443 -0.16677961 0.39637497
-0.24040268 -0.16929974 0.39627939
-0.2111305 -0.16109738 0.38990504
-0.18809539 -0.15850472 0.38432059
-0.16223226 -0.1586626 0.38461554
-0.13726829 -0.15966895 0.38325459
-0.11177471 -0.16082181 0.3838726
-0.086782046 -0.15996979 0.38685989
-0.062730372 -0.16549894 0.38753316
-0.048531998 -0.16553833 0.38826373
-0.40643314 -0.14905673 0.39438871
-0.38551185 -0.14267313 0.3897554
-0.36203986 -0.13775669 0.38864335
-0.33698916 -0.13699754 0.38831905
-0.3126069 -0.13611947 0.38688132
-0.28819898 -0.135594 0.38491419
-0.26478824 -0.13211983 0.38360915
-0.23764703 -0.13238059 0.38960627
-0.21073899 -0.13728949 0.38764086
-0.18783633 -0.13787982 0.3884868
-0.16180998 -0.13833387 0.38761386
-0.13718578 -0.13844275 0.38911235
-0.11248302 -0.14049174 0.39000231
-0.09345194 -0.14603293 0.39050028
-0.35541406 -0.12461831 0.39638653
-0.33606848 -0.12160432 0.39489564
-0.31123707 -0.11930258 0.39539427
-0.28384125 -0.11492486 0.39054978
-0.26494265 -0.11119337 0.38541111
-0.2375145 -0.10720523 0.38436538
-0.21174002 -0.11131738 0.38266644
-0.1879254 -0.12086797 0.39463186
-0.1626008 -0.12036907 0.39634842
-0.14127925 -0.12225703 0.39727762
-0.12325138 -0.12468572 0.39544177
-0.35214052 -0.07716237 0.39861655
-0.33475646 -0.077911943 0.39781341
-0.32285139 -0.076271154 0.39478835
-0.28113413 -0.086719997 0.38596219
-0.2631622 -0.085626781 0.38366321
-0.2374379 -0.08556135 0.38376489
-0.21305491 -0.08749032 0.38602352
-0.1994087 -0.078443468 0.39689332
-0.15331912 -0.075276785 0.39691734
-0.13782382 -0.079960965 0.39862946
-0.35165295 -0.071080551 0.39872682
-0.33343467 -0.067769021 0.39610225
-0.31139597 -0.063128173 0.39432824
-0.28582489 -0.06200882 0.39182201
-0.26240647 -0.062218901 0.38995814
-0.2375682 -0.061255466 0.39055675
-0.21311565 -0.062661603 0.39186263
-0.18934624 -0.060926903 0.39413577
-0.16530511 -0.065606654 0.39591581
-0.14122649 -0.071062632 0.39713582
-0.25396922 -0.049599171 0.39698797
-0.24666448 -0.049720932 0.39227
-0.28686416 -0.45155597 0.4023312
-0.26027676 -0.45267627 0.40306544
-0.23679966 -0.45261317 0.40345216
-0.21408801 -0.45122889 0.40213814
-0.33300686 -0.42932048 0.40278226
-0.31114137 -0.43238384 0.40458801
-0.28705546 -0.43654433 0.40530345
-0.26281023 -0.43689564 0.4059777
-0.23888321 -0.43684414 0.40620539
-0.21356362 -0.43703446 0.40557712
-0.18832916 -0.43453804 0.40459874
-0.16573694 -0.43054837 0.40353954
-0.14571851 -0.42555866 0.40249664
-0.37543258 -0.40248847 0.40355068
-0.35734084 -0.40649515 0.40416205
-0.33594397 -0.41173184 0.40610692
-0.31138086 -0.41221032 0.40633148
-0.28730297 -0.41242063 0.40636241
-0.26283371 -0.41167763 0.40687427
-0.23853429 -0.41146156 0.40665656
-0.21418381 -0.41254336 0.40669209
-0.18863162 -0.4122223 0.40658191
-0.16271511 -0.41231242 0.4061617
-0.13954088 -0.40891925 0.40399551
-0.12061667 -0.40353584 0.40208563
-0.38077253 -0.38444269 0.40405568
-0.3618809 -0.38583842 0.40589726
-0.33679536 -0.38747266 0.40685153
-0.31099883 -0.38690323 0.40665925
-0.28649464 -0.38784403 0.40648508
-0.26241311 -0.38635144 0.40681604
-0.23884045 -0.38581014 0.4066962
-0.21374735 -0.38747784 0.40693718
-0.18824424 -0.38764513 0.40660706
-0.16259581 -0.38684422 0.40671262
-0.13818949 -0.38703695 0.40637624
-0.11502768 -0.38455951 0.40448463
-0.098612204 -0.37789866 0.403036
-0.40261871 -0.35763067 0.40394458
-0.38602006 -0.36127439 0.40574741
-0.36251107 -0.36131039 0.40620628
-0.33715767 -0.36164802 0.40677351
-0.31116521 -0.3624028 0.40656096
-0.28652349 -0.36226636 0.40643996
-0.26224399 -0.36139777 0.4066163
-0.238425 -0.36086786 0.40673563
-0.214196 -0.36261877 0.40681112
-0.18835288 -0.36266607 0.40649119
-0.16260633 -0.36228672 0.40676653
-0.13759086 -0.36199054 0.40674946
-0.11326966 -0.36190319 0.40652514
-0.093044408 -0.35918823 0.40372872
-0.40838343 -0.33634287 0.40399107
-0.3881475 -0.33691525 0.40642247
-0.36228362 -0.33673707 0.4064585
-0.33682784 -0.33787498 0.40661523
-0.31145358 -0.33752039 0.40642405
-0.28661135 -0.33708817 0.40659985
-0.26227531 -0.3367421 0.40676883
-0.23906268 -0.33664617 0.40681052
-0.21403939 -0.33730221 0.40674728
-0.18838699 -0.33786428 0.4066315
-0.16274092 -0.33805203 0.40692657
-0.13768944 -0.33701974 0.40675732
-0.11248852 -0.33716381 0.40677103
-0.08877074 -0.3363511 0.40507665
-0.073445976 -0.33508572 0.4009594
-0.42684287 -0.30218485 0.40158617
-0.41122353 -0.31222919 0.40508255
-0.38814968 -0.31244165 0.40639901
-0.36228657 -0.31250563 0.40633783
-0.33681476 -0.31282258 0.40679404
-0.31168771 -0.31282774 0.40670809
-0.2862007 -0.31309357 0.40648317
-0.26224369 -0.31160861 0.4066067
-0.23910378 -0.31194296 0.40697244
-0.21409117 -0.31315032 0.40678918
-0.18785937 -0.3127355 0.40682924
-0.16211954 -0.31292036 0.40711081
-0.13748629 -0.31207588 0.40686983
-0.11227099 -0.31274867 0.40683433
-0.08774215 -0.31167114 0.4059203
-0.070342243 -0.31181979 0.40354922
-0.42733547 -0.28613478 0.40285191
-0.41263965 -0.28740841 0.4058114
-0.38823652 -0.28880101 0.40648061
-0.36171106 -0.28751376 0.40669486
-0.33708388 -0.28806403 0.4066439
-0.31209889 -0.28802681 0.40687013
-0.28671238 -0.28836948 0.40686283
-0.26244599 -0.28698185 0.40680319
-0.23859237 -0.28716001 0.40700015
-0.21405011 -0.28870642 0.40696505
-0.18834463 -0.28757954 0.40671849
-0.16243629 -0.28784421 0.40723574
-0.1380861 -0.28730345 0.40713629
-0.11263782 -0.2876496 0.40674189
-0.086418442 -0.28734642 0.40633145
-0.067438751 -0.28604707 0.40385729
-0.42817792 -0.26069379 0.4027791
-0.41152453 -0.26299983 0.40638098
-0.38733989 -0.26323816 0.40667644
-0.36230356 -0.26275739 0.40697119
-0.33695585 -0.26261622 0.40647474
-0.31257698 -0.26308534 0.40670732
-0.28624189 -0.26359648 0.40685281
-0.26188284 -0.26273742 0.40636864
-0.23895325 -0.26271117 0.40704527
-0.21386883 -0.26401481 0.40701312
-0.1875339 -0.26277578 0.4067826
-0.1625856 -0.26258904 0.40712029
-0.1380419 -0.26269153 0.40689415
-0.11354118 -0.26251304 0.40696439
-0.08674404 -0.26187953 0.40646905
-0.065395296 -0.2616016 0.40395299
-0.42805535 -0.23689225 0.40365472
-0.41086659 -0.23735018 0.40633956
-0.38641393 -0.23815355 0.40679106
-0.36117741 -0.23794809 0.40675372
-0.33654064 -0.23710188 0.40639123
-0.31290472 -0.23765382 0.40685728
-0.28682858 -0.23807366 0.4070785
-0.26182181 -0.23791134 0.40643099
-0.2386966 -0.23780218 0.40696892
-0.21381594 -0.23849125 0.40674648
-0.18785134 -0.2375761 0.40656427
-0.16289571 -0.23738578 0.40700528
-0.13833544 -0.23780589 0.40693527
-0.11429603 -0.23771136 0.40706852
-0.087947048 -0.2370052 0.40660179
-0.0668827 -0.23725975 0.40427279
-0.43013155 -0.21375819 0.40283084
-0.41079339 -0.21207267 0.40615758
-0.38613474 -0.21292441 0.40665999
-0.36037087 -0.21349463 0.40707833
-0.33615208 -0.21238711 0.40612057
-0.31304115 -0.21230602 0.40682328
-0.28749314 -0.21296863 0.40689594
-0.26200843 -0.21294162 0.40657419
-0.23835637 -0.21329647 0.40692115
-0.21410315 -0.21295102 0.40684757
-0.1881545 -0.2128206 0.40698814
-0.16309962 -0.21296658 0.40690023
-0.13904347 -0.21289051 0.4071674
-0.11443785 -0.21224016 0.40712613
-0.087409109 -0.21258026 0.40669203
-0.06590879 -0.21304198 0.40404391
-0.42997295 -0.1883615 0.40365916
-0.4102276 -0.18705441 0.40678826
-0.38565436 -0.18783978 0.40705663
-0.36094621 -0.18865649 0.40696651
-0.33545071 -0.18762048 0.4066686
-0.31262702 -0.18797368 0.40684497
-0.28689039 -0.18788342 0.40690842
-0.26193696 -0.1884515 0.40627533
-0.23894756 -0.18868183 0.40688014
-0.21389142 -0.18768898 0.40685442
-0.18773007 -0.18834208 0.40709391
-0.16358867 -0.18844792 0.40685037
-0.13942698 -0.18816689 0.40705642
-0.11471199 -0.18750143 0.40733317
-0.087255016 -0.18795322 0.40698823
-0.065967351 -0.18831226 0.40394911
-0.43261367 -0.16314958 0.41277263
-0.41206679 -0.16005018 0.41251367
-0.3892251 -0.15887588 0.41073996
-0.3614921 -0.1620004 0.40930805
-0.33620694 -0.16168323 0.40949747
-0.31281376 -0.1611684 0.41027135
-0.28766891 -0.16127698 0.40968546
-0.26244727 -0.16146055 0.40989494
-0.23831531 -0.16169038 0.41038823
-0.21296076 -0.16123292 0.41016817
-0.18748794 -0.1609443 0.41066158
-0.1634924 -0.16188948 0.41074088
-0.13809547 -0.16120857 0.41047832
-0.11236766 -0.16034596 0.41129619
-0.087223276 -0.1601219 0.41222784
-0.062889285 -0.16313697 0.41221282
-0.048016448 -0.16299741 0.41068387
-0.40464979 -0.1470525 0.4140389
-0.3862218 -0.13977481 0.4139688
-0.36348462 -0.13463379 0.41396931
-0.33833906 -0.13881297 0.41635013
-0.31317189 -0.13890688 0.41641724
-0.28798583 -0.13901483 0.41670126
-0.2629368 -0.13992475 0.41738558
-0.23749101 -0.13992715 0.4171457
-0.21261282 -0.13875462 0.41666532
-0.18762425 -0.13829716 0.41567776
-0.16115557 -0.13758712 0.41472116
-0.13563344 -0.13419965 0.41394052
-0.11213941 -0.13644701 0.41358721
-0.092333153 -0.14355946 0.4126704
-0.40610966 -0.1031773 0.42313892
-0.39215225 -0.10034394 0.42194134
-0.35767856 -0.12241997 0.41307008
-0.33693627 -0.11809848 0.41353306
-0.31231469 -0.11258534 0.41358295
-0.28777227 -0.10996876 0.41293478
-0.26338279 -0.10696856 0.41426697
-0.2368446 -0.10842646 0.41604435
-0.21171834 -0.11087086 0.41456708
-0.18756486 -0.11253396 0.41348749
-0.16307226 -0.11594481 0.41280046
-0.13964236 -0.12091018 0.41326037
-0.1210766 -0.12424202 0.41698831
-0.081915557 -0.1002813 0.41879919
-0.40476131 -0.094054461 0.42078245
-0.38579133 -0.087818332 0.4180108
-0.36423814 -0.080876365 0.41374278
-0.34069723 -0.077930652 0.408117
-0.32000384 -0.077133067 0.40323457
-0.28396255 -0.079311088 0.40144438
-0.26494607 -0.085440338 0.40497226
-0.23861116 -0.088870458 0.41163093
-0.21002941 -0.082107365 0.40191203
-0.19991922 -0.07874155 0.4028351
-0.1559592 -0.07740584 0.4107064
-0.13569215 -0.079141349 0.41461799
-0.11457812 -0.082546078 0.41802499
-0.092898086 -0.090374984 0.42010775
-0.37623486 -0.074369848 0.41584826
-0.35927644 -0.070931248 0.41340598
-0.33763158 -0.066898137 0.41000587
-0.31263414 -0.062916525 0.40780878
-0.28792781 -0.059195157 0.40600604
-0.26312929 -0.057567123 0.40580308
-0.23742647 -0.057566799 0.405792
-0.21220174 -0.059361063 0.40639785
-0.18737419 -0.061252281 0.40732953
-0.16195253 -0.066103116 0.41000441
-0.13993511 -0.06948714 0.41224137
-0.12018505 -0.072605886 0.41429296
-0.26717967 -0.049884826 0.40337396
-0.43307981 -0.15877262 0.43777511
-0.41364408 -0.15686511 0.43631628
-0.39612865 -0.1523141 0.43783644
-0.10190298 -0.15311535 0.4376592
-0.084636115 -0.15658475 0.43675199
-0.063215554 -0.15948811 0.43656161
-0.048697967 -0.15974298 0.43469819
-0.43298656 -0.13750346 0.44483259
-0.41049647 -0.1421598 0.44109625
-0.38755029 -0.13723871 0.43733674
-0.36483029 -0.12956551 0.43661568
-0.33804271 -0.131419 0.43088928
-0.31145799 -0.1342974 0.42821547
-0.28797504 -0.13233306 0.42828143
-0.26386085 -0.13207689 0.42890897
-0.23649298 -0.13349399 0.42841962
-0.21254194 -0.13238107 0.42860195
-0.18811259 -0.13253888 0.42896342
-0.16044991 -0.13121979 0.43204778
-0.13551982 -0.13002472 0.43661129
-0.11170322 -0.13523521 0.43683109
-0.091378599 -0.14248498 0.43842545
-0.061574053 -0.14147106 0.44510406
-0.047243755 -0.13902543 0.44770542
-0.4339875 -0.11319479 0.44207188
-0.41400221 -0.10920643 0.43909618
-0.3911868 -0.10803335 0.43612719
-0.35915923 -0.12129776 0.43908706
-0.33671775 -0.11638762 0.43756014
-0.31238896 -0.11164267 0.43775487
-0.28730255 -0.1094845 0.43753481
-0.26198888 -0.10819501 0.43675372
-0.23729914 -0.10813139 0.43728852
-0.21252751 -0.1097214 0.43736532
-0.18751176 -0.11150077 0.43757161
-0.16274844 -0.11477689 0.43777743
-0.13911001 -0.11976044 0.4380424
-0.11707696 -0.12082569 0.43788913
-0.08193478 -0.10697357 0.44036695
-0.064998157 -0.11019691 0.44320187
-0.046884026 -0.1148894 0.44484708
-0.42744672 -0.0999403 0.43791246
-0.40947095 -0.094752982 0.43638349
-0.38911843 -0.087875552 0.43177655
-0.36683306 -0.082906298 0.43048328
-0.34757596 -0.076781318 0.4268207
-0.25683144 -0.099441908 0.44066074
-0.24134357 -0.099279679 0.44070414
-0.22319472 -0.098702677 0.44538492
-0.13288414 -0.079682752 0.4285973
-0.10966266 -0.08544296 0.43199101
-0.088321298 -0.092533223 0.43636045
-0.070941418 -0.09701287 0.43831724
-0.37522668 -0.073263168 0.42615816
-0.3623859 -0.072976932 0.4299354
-0.3444421 -0.067533612 0.42529759
-0.15183377 -0.06947273 0.42535689
-0.13659051 -0.07155627 0.42688569
-0.11514479 -0.074073315 0.42754686
-0.43326768 -0.15643574 0.46218997
-0.41505638 -0.15497729 0.46147916
-0.39849845 -0.15349771 0.45771641
-0.10245299 -0.1501435 0.46165964
-0.083469495 -0.15535571 0.46174526
-0.062359132 -0.15639921 0.46124113
-0.048127718 -0.15608828 0.46028194
-0.43589258 -0.13706525 0.46278286
-0.41128728 -0.13961564 0.46375334
-0.38780513 -0.13452388 0.46232477
-0.36671764 -0.12832586 0.46123374
-0.34265852 -0.12619416 0.45708662
-0.15293847 -0.12624148 0.45654139
-0.13355422 -0.12805589 0.46173435
-0.11185484 -0.13321404 0.46210533
-0.089511819 -0.13921607 0.46286672
-0.060922083 -0.13747317 0.46396539
-0.047405131 -0.13594268 0.46346125
-0.43454674 -0.11533707 0.45927733
-0.4163287 -0.11466642 0.4600971
-0.38143659 -0.12147211 0.4637199
-0.36013103 -0.12020503 0.46351269
-0.33712375 -0.11466529 0.46276185
-0.31235573 -0.10954876 0.46298301
-0.28758013 -0.10658527 0.4620491
-0.2623018 -0.10526291 0.46137831
-0.23702475 -0.10505706 0.46177363
-0.21206409 -0.10665394 0.46187025
-0.18796533 -0.10902332 0.46199736
-0.1626606 -0.11336984 0.46254724
-0.1397154 -0.11826116 0.46325135
-0.11787652 -0.1219288 0.46373993
-0.08154501 -0.11390971 0.46082485
-0.062248833 -0.11458358 0.46009177
-0.047164857 -0.11641498 0.4602116
-0.42666048 -0.099871486 0.45690018
-0.41005978 -0.096962728 0.45294923
-0.2793192 -0.099821061 0.4711847
-0.25956658 -0.099200577 0.46294725
-0.23936482 -0.098770648 0.46291432
-0.2119887 -0.099565461 0.45858145
-0.082290314 -0.097835399 0.45183137
-0.072228961 -0.097434796 0.45124793
-0.43364233 -0.15372351 0.48680812
-0.4165726 -0.15307193 0.48584682
-0.399744 -0.15428376 0.47719425
-0.081409514 -0.15353088 0.48640463
-0.063735187 -0.15420668 0.48683816
-0.048153251 -0.15191421 0.49146044
-0.43441725 -0.14039525 0.48431602
-0.41122955 -0.1404867 0.48795569
-0.38850895 -0.13291346 0.48737523
-0.36752725 -0.12760019 0.48521781
-0.15288487 -0.12590307 0.48280862
-0.13145293 -0.1273382 0.48485291
-0.11042499 -0.13167335 0.48729926
-0.08901374 -0.13934317 0.48779404
-0.061359804 -0.13940839 0.4864752
-0.046850063 -0.13966124 0.48380795
-0.43856168 -0.121585 0.47937369
-0.4152042 -0.12034591 0.47734705
-0.37983245 -0.12178195 0.48870003
-0.36138761 -0.11868871 0.48831373
-0.3374925 -0.1131537 0.48749423
-0.3126877 -0.10808744 0.48774561
-0.28769577 -0.10569151 0.48677367
-0.26329777 -0.10482303 0.486417
-0.23707956 -0.10480607 0.48665643
-0.21188849 -0.10539771 0.48754534
-0.18720418 -0.1076171 0.48704711
-0.16323897 -0.111444 0.48754972
-0.13823757 -0.11710139 0.4880653
-0.11637247 -0.1207136 0.48846844
-0.085108876 -0.12372318 0.48359272
-0.064122155 -0.1218966 0.47691301
-0.046786655 -0.12444038 0.47800723
-0.28296313 -0.099598296 0.4894042
-0.261648 -0.0986595 0.48870581
-0.23829615 -0.098646179 0.4885008
-0.21664366 -0.099047638 0.48950529
-0.43276417 -0.15156165 0.5088895
-0.41557285 -0.15195432 0.50762552
-0.082180485 -0.15223178 0.50680482
-0.064007804 -0.15170398 0.50879872
-0.046033524 -0.15066636 0.52112174
-0.43287525 -0.14495796 0.51257294
-0.41171944 -0.14120087 0.51321781
-0.38991493 -0.13190281 0.51228625
-0.36823353 -0.1273288 0.51042318
-0.13118893 -0.12787908 0.50895494
-0.10896489 -0.13042448 0.51222354
-0.087749399 -0.13919282 0.51251054
-0.063340694 -0.14498171 0.51430279
-0.048305515 -0.14611578 0.51365352
-0.3813585 -0.12090443 0.51418948
-0.36161229 -0.11702287 0.51292509
-0.33673775 -0.11171041 0.51194096
-0.31237018 -0.10679568 0.51261216
-0.28799558 -0.10516272 0.51243746
-0.26370442 -0.10467141 0.51237679
-0.23743927 -0.10471478 0.51225144
-0.21183753 -0.10503482 0.51241857
-0.18726553 -0.10644664 0.51276541
-0.16311179 -0.11059054 0.5127809
-0.13784485 -0.11577919 0.51273805
-0.11637547 -0.11981545 0.5137217
-0.097210795 -0.12304668 0.51477402
-0.30228949 -0.099691451 0.51818931
-0.28442141 -0.099053726 0.51410365
-0.2609905 -0.0982958 0.51300573
-0.23819274 -0.098074071 0.51295418
-0.21387811 -0.098728158 0.51450461
-0.19154295 -0.099301539 0.51684797
-0.43267092 -0.15161057 0.53196734
-0.41801715 -0.15099072 0.52966321
-0.076786369 -0.15248418 0.53269827
-0.062129259 -0.15042305 0.53125441
-0.43275514 -0.14206922 0.53753239
-0.41193715 -0.13873138 0.537498
-0.39083752 -0.1305756 0.53682482
-0.3708832 -0.12750128 0.5367161
-0.13049808 -0.12670553 0.53291672
-0.10793184 -0.12962607 0.53709292
-0.087592356 -0.13650861 0.53761125
-0.064315781 -0.14218938 0.53788358
-0.047972776 -0.14105146 0.54087853
-0.38261694 -0.12012416 0.53815073
-0.36202636 -0.11558876 0.53763294
-0.33698103 -0.11019665 0.5372383
-0.31295344 -0.10591052 0.5373221
-0.28788355 -0.10472292 0.5370217
-0.26270327 -0.10421492 0.53710437
-0.23677711 -0.10414293 0.53703117
-0.21146949 -0.10495844 0.53701001
-0.18666281 -0.10549401 0.53778154
-0.16229834 -0.10895882 0.53774929
-0.13760303 -0.11401302 0.53729773
-0.11447823 -0.11878851 0.53838432
-0.095348097 -0.12237214 0.54082304
-0.30737278 -0.099192165 0.54102004
-0.28591439 -0.098482125 0.53805745
-0.26223686 -0.097435623 0.53882736
-0.23736802 -0.097231343 0.5382266
-0.21364108 -0.098269068 0.53802091
-0.19063032 -0.098918959 0.53829098
-0.17133765 -0.099464573 0.53367013
-0.43294376 -0.13888569 0.56252944
-0.41222295 -0.13606465 0.56217718
-0.39222261 -0.12950997 0.56160057
-0.37278581 -0.1261998 0.56398147
-0.1265797 -0.12610781 0.55516291
-0.10655622 -0.12856632 0.56180918
-0.086690016 -0.13463221 0.56266481
-0.063356504 -0.1388489 0.56229508
-0.047412947 -0.13966052 0.56278002
-0.40214357 -0.12396266 0.56633049
-0.38440707 -0.11915158 0.56258422
-0.36243001 -0.11298886 0.56269491
-0.33766344 -0.10783481 0.5628382
-0.31382182 -0.10507607 0.56123638
-0.2876606 -0.10373876 0.56248367
-0.26321104 -0.1027035 0.56170893
-0.23758772 -0.10255886 0.56258249
-0.21237737 -0.1037121 0.56226242
-0.18719414 -0.10488535 0.56226349
-0.16174342 -0.1074026 0.56234974
-0.13727009 -0.11176266 0.56228882
-0.11403562 -0.11725078 0.56281143
-0.093990661 -0.12153101 0.56419665
-0.3283489 -0.099565826 0.56682914
-0.31025383 -0.097943269 0.56508696
-0.28748339 -0.096967138 0.56310362
-0.26216984 -0.095613293 0.56367141
-0.23823333 -0.095522285 0.56332451
-0.21223345 -0.096548133 0.56315506
-0.18815617 -0.097618543 0.56397295
-0.16708085 -0.09884569 0.56632745
-0.4331207 -0.13560031 0.5876177
-0.41260561 -0.13348953 0.58757031
-0.394003 -0.12903273 0.58637595
-0.1045397 -0.12775998 0.58581519
-0.08597178 -0.13262002 0.58786339
-0.063885435 -0.13568178 0.58716619
-0.048233781 -0.13525893 0.58646166
-0.40438673 -0.12307181 0.5894888
-0.38588184 -0.11747105 0.58773053
-0.36263776 -0.11016415 0.58775741
-0.33905452 -0.10588928 0.58678883
-0.31344298 -0.10331458 0.58682096
-0.28822327 -0.10211084 0.58659321
-0.26434791 -0.10171123 0.58487606
-0.23741896 -0.10155141 0.58556122
-0.2107807 -0.10193823 0.58635944
-0.18658318 -0.1031763 0.58710021
-0.1611467 -0.10564903 0.58729279
-0.13708661 -0.10909507 0.58753091
-0.11333115 -0.11499728 0.5879634
-0.092966117 -0.12058384 0.58898181
-0.073393345 -0.12479192 0.59996003
-0.33246845 -0.098529048 0.58961785
-0.31223169 -0.096508324 0.58777022
-0.28707138 -0.095237896 0.58844841
-0.26271033 -0.094614945 0.58843672
-0.23801394 -0.094239019 0.58841711
-0.21383572 -0.094797038 0.58826822
-0.18871333 -0.095752083 0.58841252
-0.16639768 -0.09735807 0.58939672
-0.14521299 -0.098831765 0.59478956
-0.43284023 -0.13279851 0.6126011
-0.41389069 -0.13127925 0.61254501
-0.39444765 -0.12837465 0.61209613
-0.10309396 -0.12783794 0.61232024
-0.084839359 -0.13097706 0.61244142
-0.063470758 -0.13286728 0.61208636
-0.047814436 -0.13315755 0.61233902
-0.40456858 -0.12210757 0.61422557
-0.3862949 -0.11548673 0.61280268
-0.36298254 -0.10742116 0.61261976
-0.338438 -0.10420404 0.61131316
-0.31629315 -0.10228107 0.60983336
-0.2920534 -0.10122096 0.6108461
-0.26594299 -0.10085706 0.6078037
-0.23386364 -0.10133073 0.61078727
-0.21129088 -0.10152081 0.60972375
-0.18522488 -0.10174018 0.6110481
-0.16082974 -0.10421243 0.61190063
-0.13689093 -0.10681035 0.61236191
-0.11277198 -0.11275405 0.61289084
-0.091872387 -0.12028427 0.61328477
-0.073228851 -0.12239248 0.61903954
-0.3537983 -0.099048853 0.61900169
-0.33587304 -0.09717232 0.6138165
-0.31113562 -0.094848722 0.61315614
-0.28725526 -0.093508519 0.61273265
-0.26214597 -0.092157476 0.61304581
-0.23733732 -0.091902897 0.61264318
-0.21269554 -0.093577899 0.61258101
-0.1880164 -0.094411477 0.61293006
-0.16341306 -0.096370384 0.61306411
-0.14175004 -0.098156057 0.61603492
-0.43327862 -0.13056074 0.63701969
-0.41469342 -0.12984979 0.63681161
-0.39556724 -0.12769474 0.63727939
-0.101735 -0.12799564 0.63677269
-0.08429306 -0.12973079 0.63620877
-0.064781979 -0.13065876 0.63740265
-0.048410866 -0.12968495 0.63921738
-0.4323144 -0.12408454 0.64240932
-0.40915781 -0.12167183 0.63893962
-0.38716412 -0.11335436 0.6374017
-0.3639676 -0.10570806 0.63725495
-0.34009594 -0.10305665 0.63616019
-0.31581798 -0.10172563 0.631392
-0.29487193 -0.10077578 0.63232964
-0.2717492 -0.10038543 0.62500405
-0.20777141 -0.10057072 0.63511342
-0.18209317 -0.10152401 0.63595814
-0.16039352 -0.10280921 0.63632977
-0.13597423 -0.10534985 0.63726729
-0.11212221 -0.11073115 0.63760114
-0.090637229 -0.11902399 0.63858211
-0.064952761 -0.12375187 0.64043248
-0.048069004 -0.12428036 0.63605821
-0.35876876 -0.098047212 0.64014792
-0.33586144 -0.095465884 0.63872057
-0.31195655 -0.093010515 0.63798112
-0.28709242 -0.091385312 0.63743651
-0.26227945 -0.089485541 0.63775593
-0.23786098 -0.089148328 0.63747609
-0.21258524 -0.090692848 0.63743991
-0.1873396 -0.092746265 0.63762945
-0.16383983 -0.0945592 0.63744766
-0.14050385 -0.096983045 0.63905531
-0.1195136 -0.098819822 0.641532
-0.43317845 -0.12933281 0.66185009
-0.41551751 -0.12889509 0.66198808
-0.39637125 -0.12715751 0.66121143
-0.10026766 -0.12658341 0.66265506
-0.083659954 -0.12877175 0.66150761
-0.0635162 -0.1293216 0.66245586
-0.049137235 -0.127404 0.66215527
-0.43219778 -0.12268514 0.66370624
-0.40967155 -0.12031642 0.66326797
-0.38768911 -0.11096849 0.66235542
-0.36396635 -0.104646 0.66219932
-0.34135619 -0.10224548 0.65955836
-0.31700113 -0.10063263 0.65820557
-0.18265955 -0.10170154 0.65597242
-0.15695517 -0.10187817 0.66000634
-0.13564309 -0.10393839 0.66224551
-0.11134456 -0.1088878 0.66244197
-0.089325681 -0.11786488 0.66333365
-0.064677112 -0.12259706 0.66322774
-0.047752071 -0.12233148 0.6638909
-0.3781907 -0.099166341 0.66453356
-0.36088309 -0.096511081 0.66341442
-0.3368232 -0.094148867 0.6630851
-0.31223002 -0.090540759 0.66260737
-0.28792477 -0.088249147 0.66281778
-0.26222584 -0.086501241 0.6624068
