# .PCD v0.7 - Point Cloud Data file format
VERSION 0.7
FIELDS x y z
SIZE 4 4 4
TYPE F F F
COUNT 1 1 1
WIDTH 1508
HEIGHT 1
VIEWPOINT 0 0 0 1 0 0 0
POINTS 1508
DATA ascii
1.0498539 0.70391965 0.29794985
1.0575104 0.71201313 0.29835182
1.4080702 0.71104586 0.29589865
1.0496883 0.74064857 0.29895395
1.0571885 0.73798215 0.2986131
1.4073602 0.73488247 0.29634514
1.0555494 0.76256084 0.29868278
1.4108734 0.76552832 0.29848683
1.0568978 0.78634614 0.29821676
1.4102192 0.78676236 0.29818457
1.0490818 0.82230264 0.29954562
1.0572236 0.81178999 0.29787683
1.4094182 0.81197453 0.2978504
1.0488658 0.84215504 0.29806563
1.0575125 0.83645439 0.29786476
1.4086906 0.8357439 0.29720008
1.0171624 0.86715382 0.28765634
1.0348014 0.86279416 0.28768072
1.0626278 0.86293393 0.29740494
1.086794 0.86554313 0.29766333
1.1127679 0.86555755 0.29759619
1.1375625 0.86537504 0.29762828
1.1625928 0.86608917 0.29751003
1.1870296 0.86570632 0.29748964
1.2137617 0.865502 0.29741541
1.2378253 0.86571372 0.29723483
1.262506 0.86540174 0.29767057
1.2863152 0.86512899 0.29752263
1.3122573 0.86642826 0.29753688
1.3365226 0.86624968 0.29756296
1.3632551 0.86620009 0.29713386
1.3876773 0.86589938 0.29753429
1.4112742 0.8635987 0.29687899
1.4379946 0.86489606 0.28767094
1.4537103 0.87140429 0.28893521
0.9966374 0.88757759 0.28814515
1.0108738 0.88685924 0.28746235
1.0337635 0.88671613 0.28723329
1.061675 0.8797245 0.29771292
1.0876901 0.88014781 0.29836592
1.1161654 0.87978339 0.29748333
1.1397226 0.87962055 0.29812676
1.1641011 0.88018775 0.29770154
1.1878614 0.87969041 0.29781628
1.2129041 0.87986124 0.297481
1.237167 0.88039744 0.29768926
1.263078 0.88032591 0.29736593
1.2882396 0.87950611 0.2975671
1.3131814 0.88074172 0.29785147
1.3373793 0.87978852 0.298168
1.3625821 0.87997282 0.29799551
1.3879614 0.880539 0.29732621
1.4179227 0.8860985 0.29080868
1.4375497 0.88852501 0.28682476
1.4590403 0.88675475 0.28767931
0.99706805 0.51883811 0.31290919
1.0120894 0.51819938 0.31242648
1.037172 0.51830202 0.31259918
1.06244 0.51901168 0.31324434
1.0880258 0.5190956 0.31285554
1.112803 0.51912344 0.31300858
1.1377685 0.51925975 0.31289592
1.1627322 0.51909232 0.31307387
1.187399 0.51914752 0.31265107
1.2122657 0.51940423 0.3130846
1.2377696 0.51928127 0.31262901
1.2621942 0.5195123 0.31303209
1.2875001 0.51927036 0.3130233
1.3122983 0.51941258 0.31337106
1.3375398 0.51960737 0.31305978
1.3630264 0.51959258 0.31323817
1.3874757 0.51949036 0.31352201
1.4121118 0.5194115 0.31292239
1.4378235 0.51846474 0.3125203
1.4595213 0.51931924 0.31202704
0.99841845 0.52821165 0.31766182
1.0141081 0.53618556 0.31281903
1.0369605 0.54106134 0.30813605
1.0626577 0.53887653 0.30566156
1.0874658 0.53830254 0.30602273
1.1126789 0.53775775 0.30523732
1.138105 0.53775406 0.30535656
1.163196 0.53765702 0.3053709
1.1875716 0.53739864 0.30540127
1.2129054 0.53811204 0.3053205
1.2375652 0.53770304 0.30563998
1.2624614 0.53754294 0.30566949
1.2879586 0.53708702 0.30551472
1.3123795 0.53702885 0.30573136
1.3371482 0.53762496 0.30538946
1.3623278 0.53761196 0.30566952
1.3867109 0.537745 0.30544689
1.4113021 0.53783518 0.30490351
1.4400935 0.54123908 0.31053302
1.4570187 0.53203017 0.31184241
1.0230045 0.55154604 0.31094894
1.0411115 0.55773407 0.31378466
1.0596122 0.5620169 0.31045789
1.0875442 0.55269003 0.31352863
1.1129462 0.5528084 0.31340659
1.1376004 0.55259097 0.31276754
1.1629125 0.5526799 0.31303757
1.1886705 0.55276561 0.31294644
1.2129612 0.55290997 0.31420556
1.237689 0.55286849 0.3135125
1.2622678 0.55281508 0.31329894
1.2875979 0.5528841 0.31288987
1.3132368 0.55279076 0.31434956
1.337635 0.55299968 0.31268153
1.3628377 0.55310833 0.31386045
1.3876352 0.55298036 0.31307888
1.413311 0.56125629 0.31360328
1.4338132 0.5531022 0.3124271
1.0453923 0.58787197 0.31627557
1.0587344 0.58785689 0.31114671
1.4131198 0.5880571 0.31412414
1.4261312 0.58870232 0.321641
1.0448914 0.61197215 0.31647798
1.0583601 0.61273754 0.31080118
1.4129509 0.61250353 0.31421754
1.4269829 0.61600083 0.32344702
1.0453914 0.63752341 0.31551316
1.0589128 0.63754463 0.3108888
1.4129829 0.63694936 0.31430614
1.4275292 0.63560462 0.32303336
1.0454996 0.66273272 0.31552511
1.0585681 0.66254866 0.31072515
1.4131652 0.66264009 0.31462643
1.4251442 0.66802067 0.32068247
1.0454717 0.68757141 0.31575122
1.0585872 0.68747997 0.3109152
1.4131632 0.68753147 0.3140946
1.4259992 0.68801421 0.32159662
1.0455164 0.71254683 0.31505385
1.0578407 0.71235943 0.31036139
1.4130669 0.71211022 0.31387883
1.4265106 0.70596719 0.3235054
1.0452752 0.73767877 0.3157123
1.0584315 0.73797393 0.31067559
1.4126625 0.73780334 0.31376478
1.4264004 0.72625488 0.32291344
1.0452724 0.76262057 0.31613344
1.0589893 0.76281393 0.31140321
1.4127144 0.76268232 0.3137925
1.4253862 0.76577735 0.32185286
1.0452503 0.78712606 0.31585583
1.0585024 0.7873764 0.31067827
1.4130801 0.78724432 0.31442985
1.4261547 0.78988671 0.3227171
1.0453341 0.81192124 0.31573474
1.0584421 0.81227577 0.31037328
1.4129373 0.81283927 0.31447035
1.4265665 0.8140744 0.32307318
1.0450543 0.83688784 0.31591082
1.0588106 0.83754504 0.3103354
1.4129698 0.83750182 0.31403339
1.4265642 0.83956617 0.32211512
0.99797344 0.87497628 0.31506142
1.0153911 0.86590421 0.31332904
1.0373346 0.85869384 0.31027043
1.0627906 0.8617487 0.30803201
1.0879089 0.86219376 0.30926189
1.1123596 0.86186099 0.3094103
1.1373603 0.86214286 0.30912969
1.1625476 0.86210448 0.30867854
1.1880176 0.86204374 0.30870688
1.2127091 0.8623001 0.30880788
1.2375118 0.86224997 0.30960101
1.2624271 0.86259621 0.3086873
1.2876763 0.86209095 0.30933014
1.3126178 0.86218429 0.3099117
1.3374952 0.86208534 0.30930105
1.3620074 0.86231029 0.30970061
1.3869866 0.86219132 0.30977273
1.4123189 0.86063612 0.30910486
1.438489 0.8617143 0.31156287
1.4543233 0.87078595 0.31354758
0.99668318 0.88446975 0.31305718
1.0110967 0.88533044 0.31223896
1.0370988 0.88460207 0.3129479
1.0626634 0.88245982 0.31339842
1.0879267 0.88259697 0.3136985
1.1126548 0.88272727 0.31300148
1.1370214 0.88253409 0.3132714
1.1624851 0.88270408 0.31307101
1.1878095 0.88247776 0.31327116
1.2126093 0.88276708 0.3129482
1.2375127 0.88272673 0.31336889
1.2625173 0.88273418 0.31313297
1.287812 0.88270092 0.31326023
1.3125402 0.88284045 0.31341848
1.3374597 0.88251752 0.31285301
1.3624812 0.88282824 0.31316853
1.3875741 0.88311034 0.31364915
1.412007 0.88329756 0.31347546
1.4373367 0.8868978 0.31184253
1.459551 0.88489914 0.31187576
0.99742013 0.51946729 0.33687493
1.0125716 0.51886964 0.33704662
1.0375245 0.51727182 0.33807212
1.0619335 0.51522803 0.33847719
1.0870825 0.51534402 0.33843133
1.1126764 0.51534599 0.33830294
1.1373739 0.51509202 0.33910838
1.1622193 0.51540214 0.33868983
1.1870618 0.51530612 0.33875942
1.2126487 0.51562577 0.33892319
1.2373648 0.51580143 0.33835271
1.2627555 0.51579642 0.33872172
1.2879378 0.51572448 0.33877683
1.3122844 0.51578379 0.33923519
1.3379593 0.51616699 0.33868003
1.3626382 0.51603103 0.33898887
1.387181 0.51630199 0.33852944
1.4128964 0.51683342 0.33827376
1.4376847 0.51895183 0.33719519
1.4597045 0.51984602 0.33711901
0.99748957 0.52689743 0.33913544
1.0134565 0.5364272 0.33801031
1.0299318 0.54553205 0.33764622
1.4431913 0.54270136 0.33698055
1.4574711 0.53222251 0.33771023
1.022539 0.5528549 0.33950922
1.0378554 0.56185848 0.33644506
1.0654489 0.5620988 0.33657536
1.0877466 0.55920434 0.34209582
1.1122227 0.55892861 0.34008411
1.1377171 0.5590505 0.34036377
1.162522 0.55924457 0.33995077
1.18734 0.55921108 0.33970949
1.212787 0.55913097 0.34018317
1.2377679 0.5590601 0.34026819
1.2627712 0.5595805 0.34011531
1.2883204 0.55897725 0.33974534
1.313185 0.55975211 0.34029242
1.3378034 0.55955732 0.34039569
1.362381 0.55994147 0.34012374
1.3874873 0.56011373 0.34010941
1.4150834 0.56263477 0.33533111
1.4318787 0.56020594 0.33898091
1.0388435 0.5878852 0.33704042
1.0649792 0.58775091 0.33800751
1.0880412 0.58764637 0.34425974
1.1130118 0.58799487 0.34356767
1.1374139 0.58781344 0.3433952
1.1621506 0.58746958 0.34328151
1.187408 0.58769494 0.34371066
1.2125038 0.58754003 0.34301293
1.2376711 0.58725893 0.34340826
1.2624046 0.58744192 0.34330034
1.2880965 0.58804393 0.34345752
1.3129324 0.5878436 0.34341285
1.3376013 0.58804125 0.34357592
1.3625121 0.58803779 0.34354126
1.3872694 0.58783424 0.34322536
1.4151361 0.58765984 0.3363139
1.4295154 0.58836848 0.34123766
1.0391123 0.61243564 0.33732742
1.0648175 0.6129483 0.33757284
1.0878013 0.61271292 0.34410149
1.1127841 0.61286819 0.34332213
1.1380959 0.61294484 0.34315073
1.1632221 0.61318082 0.34272078
1.1873152 0.61319476 0.34305155
1.2127227 0.61280346 0.34279442
1.2375642 0.61326003 0.3433601
1.2627015 0.6127336 0.34311527
1.2886808 0.61311835 0.34284291
1.3129667 0.61324281 0.34323522
1.337051 0.61325532 0.34303313
1.3621927 0.61245477 0.34315771
1.3869143 0.61338049 0.34258503
1.4146457 0.61249614 0.33624449
1.4293672 0.61294198 0.34017834
1.0389401 0.63702404 0.33711368
1.0653886 0.63745648 0.33818218
1.088074 0.63722825 0.34448576
1.1127495 0.63735229 0.34365797
1.1379757 0.63656658 0.34312209
1.1630135 0.63665348 0.34262145
1.1871561 0.63744974 0.34284967
1.2122484 0.637748 0.34276709
1.2373322 0.637918 0.3433463
1.2626984 0.63726902 0.34351164
1.2881972 0.63736624 0.34305128
1.3122151 0.63693869 0.34365448
1.3373157 0.63702607 0.34332287
1.3620778 0.63752997 0.34315321
1.3863544 0.63746041 0.3426106
1.4142232 0.63753927 0.33599034
1.4292531 0.63793361 0.34071153
1.0388341 0.6625486 0.33689815
1.065304 0.66250837 0.33817777
1.0878483 0.6624012 0.34440523
1.1123844 0.66247177 0.34363562
1.138126 0.66192251 0.34320784
1.1630728 0.66189724 0.34312651
1.1875362 0.66231465 0.34334844
1.212821 0.66289079 0.34273481
1.2375209 0.6620847 0.34339964
1.262368 0.66240656 0.34331191
1.2878882 0.66279244 0.34335962
1.3124593 0.66199899 0.3435367
1.3375552 0.66213441 0.34356084
1.3623154 0.66260439 0.34346178
1.3867965 0.66277814 0.34297013
1.4145105 0.66251439 0.33550924
1.4294486 0.66302913 0.34035918
1.0386803 0.68769008 0.33683443
1.065111 0.68805814 0.33717161
1.0880836 0.68729097 0.34397858
1.1121398 0.68749356 0.34337816
1.1379361 0.68756211 0.34304631
1.1632348 0.68740296 0.34266952
1.1878254 0.68735558 0.3431713
1.2129065 0.68743324 0.34285429
1.2375771 0.68691611 0.34328374
1.2629431 0.68758184 0.34330991
1.288013 0.68780768 0.34354916
1.3122467 0.68729383 0.34332076
1.3372416 0.68755352 0.34386161
1.3623332 0.6874516 0.34384742
1.3867915 0.68737864 0.34308675
1.4139158 0.68742019 0.33571583
1.429267 0.68828207 0.34042785
1.0390673 0.71214592 0.33691016
1.0656098 0.71226424 0.33668506
1.0884576 0.71231711 0.34413883
1.1119138 0.71196312 0.34307742
1.1371999 0.71246731 0.34317708
1.1638651 0.71252316 0.34332001
1.1879402 0.71240151 0.34349406
1.2130998 0.71258652 0.34274873
1.2379479 0.71252787 0.34347129
1.2625486 0.71249127 0.34344912
1.2880998 0.71251261 0.34319571
1.3120207 0.71251047 0.34343126
1.3374534 0.71221775 0.3439832
1.3623383 0.71200979 0.34355271
1.3873676 0.71252489 0.34291726
1.4146932 0.71221519 0.33511227
1.4294447 0.71299273 0.3400183
1.0390512 0.73764741 0.33673495
1.0658706 0.73730874 0.33668149
1.0888743 0.73741585 0.34430566
1.1115563 0.73712772 0.3434478
1.1366322 0.73762691 0.34349039
1.1631317 0.73767561 0.34328392
1.188172 0.73711079 0.34354708
1.2130729 0.73757166 0.34296766
1.2379278 0.73745716 0.34361336
1.2628787 0.7373969 0.34312662
1.2884125 0.73743951 0.34310913
1.3124028 0.73774165 0.34336555
1.3377445 0.73728091 0.34383759
1.3618388 0.73726201 0.34317535
1.3865343 0.73784608 0.34298822
1.4143277 0.73751241 0.33597142
1.4290442 0.73782837 0.34050676
1.0385996 0.76282072 0.33703893
1.0660849 0.76272225 0.33798185
1.0887091 0.76256621 0.34439793
1.1120582 0.76276493 0.34334016
1.1367024 0.7629779 0.34350318
1.1626561 0.7625351 0.34348899
1.1882832 0.76229906 0.34333622
1.2127607 0.76267433 0.34325945
1.2377286 0.761904 0.3436141
1.2629983 0.76251578 0.34326538
1.28859 0.76290345 0.34319359
1.312567 0.76229858 0.34337232
1.3369943 0.76281035 0.34393278
1.361886 0.76316381 0.34319383
1.3869221 0.76264358 0.34293041
1.4141734 0.7627182 0.33586851
1.4293432 0.76284671 0.33998495
1.0384768 0.7873317 0.33634913
1.0659587 0.78725821 0.33940166
1.0877447 0.78689432 0.34445927
1.1122789 0.78731447 0.34344605
1.1374017 0.78724414 0.34352696
1.1626743 0.78697526 0.34341028
1.1878624 0.78684455 0.34327248
1.2132211 0.78730452 0.34306642
1.2374284 0.78711057 0.3435387
1.2624793 0.78691387 0.34313685
1.2884178 0.78735059 0.34325898
1.3127263 0.78700739 0.34354988
1.3367138 0.78742558 0.34384584
1.3616724 0.78797644 0.34329206
1.3868585 0.78659093 0.34309289
1.414235 0.78747821 0.33656532
1.4294436 0.78763425 0.34053445
1.0386375 0.81231785 0.33649549
1.0660495 0.81295168 0.3385224
1.0874764 0.81198585 0.34441367
1.1126207 0.81233656 0.34326646
1.1377723 0.81216788 0.34368375
1.1626624 0.8122406 0.34366971
1.1880823 0.81168985 0.34304738
1.2132238 0.8122676 0.34288439
1.2375584 0.81251252 0.34369451
1.2626603 0.81198204 0.34292123
1.2885816 0.81194532 0.34317058
1.3128915 0.81212461 0.34348357
1.3371212 0.81215411 0.34360293
1.3616416 0.81238002 0.34353989
1.386718 0.81186616 0.34290704
1.4147215 0.81211197 0.33610505
1.4293739 0.81212711 0.34082934
1.0232707 0.8490696 0.34160322
1.0379082 0.83817708 0.33706775
1.0658131 0.83683014 0.33783168
1.0877092 0.83649874 0.34411839
1.1123776 0.83724743 0.34322444
1.1376885 0.83743834 0.34340206
1.1624013 0.83688509 0.3430081
1.18802 0.83633649 0.34272969
1.2134154 0.83715481 0.34281239
1.2377812 0.83673453 0.3432512
1.2625409 0.83703876 0.34269726
1.2882419 0.83719116 0.34302577
1.3127495 0.8368789 0.34322938
1.3374588 0.8366884 0.34296212
1.3620137 0.83690763 0.34269223
1.3872371 0.83636707 0.34217536
1.4150234 0.83690673 0.33525586
1.4296929 0.83716601 0.34086189
0.99912781 0.87235022 0.34012246
1.0139642 0.86453253 0.3377237
1.0323682 0.85446525 0.33451247
1.0692554 0.85363472 0.33667722
1.0884992 0.85355663 0.3368246
1.1125841 0.85354948 0.33569664
1.1373012 0.85381734 0.33545911
1.1624815 0.85362113 0.33516583
1.1877432 0.85367614 0.33533177
1.2128955 0.85386896 0.33517826
1.237586 0.85388458 0.33659109
1.2625247 0.85387421 0.33506861
1.2876068 0.85394943 0.33493939
1.3128884 0.8539257 0.33567134
1.3375046 0.85377693 0.33555323
1.362461 0.85394752 0.33517814
1.3880568 0.85372365 0.33520675
1.412082 0.85360527 0.33409417
1.4400012 0.85851729 0.33689588
1.455415 0.86976564 0.3382352
0.99667788 0.88141286 0.33716273
1.0117214 0.88295865 0.33756271
1.0371233 0.88331902 0.33782741
1.0618622 0.88342911 0.33775151
1.0877301 0.88369834 0.33745927
1.1129485 0.8836323 0.33780971
1.137522 0.88354576 0.33826819
1.1621567 0.88382977 0.33756757
1.187184 0.88394743 0.33703023
1.2123969 0.88379788 0.33775857
1.2376891 0.88393629 0.33763513
1.2626786 0.88403988 0.33740869
1.2873218 0.88406497 0.3372055
1.3125234 0.8840301 0.33742103
1.3376925 0.88417423 0.33776385
1.36216 0.88422549 0.33772141
1.3871869 0.88434416 0.33739626
1.4125094 0.88422525 0.33781907
1.4379263 0.88480204 0.33787468
1.4596503 0.8826403 0.3373372
0.99751467 0.52026963 0.36238891
1.0126699 0.51948929 0.36216471
1.0372895 0.51274955 0.36224762
1.0628927 0.5071193 0.36316758
1.0872575 0.50737894 0.36312056
1.1122017 0.50728679 0.36316979
1.1373129 0.50775337 0.3637394
1.1621859 0.50744164 0.36383533
1.1868579 0.50730526 0.36349845
1.2125602 0.50794673 0.36428082
1.2379769 0.50713217 0.3634443
1.2623354 0.5076645 0.36383274
1.2871907 0.50784999 0.36380136
1.3121951 0.50751764 0.3639631
1.3376451 0.5075354 0.3637543
1.3623643 0.50781155 0.36405441
1.3873744 0.50784731 0.3634828
1.4122708 0.50820959 0.36302045
1.4364563 0.51773971 0.36217934
1.4600967 0.52069771 0.3624368
0.99745321 0.52703148 0.36435464
1.0133232 0.53681707 0.36254889
1.0338178 0.54153579 0.36576417
1.0628946 0.53696412 0.37227288
1.0877857 0.53801042 0.37236837
1.1116405 0.53738344 0.37226474
1.1374338 0.53780329 0.37241814
1.1636647 0.53670973 0.37235054
1.1886336 0.53740907 0.37257147
1.2133764 0.53795868 0.37187976
1.2385541 0.53707403 0.37242436
1.2617966 0.53725457 0.37214273
1.2872081 0.53814864 0.37207431
1.3115895 0.53768837 0.37208211
1.3365853 0.53751957 0.3723112
1.3612781 0.53812104 0.37187085
1.3876383 0.53798133 0.37202808
1.4139252 0.53759235 0.37066123
1.4427832 0.54250419 0.36220837
1.4578855 0.53277403 0.36277875
1.0225341 0.55246019 0.3634201
1.0356925 0.56194383 0.36279839
1.0644231 0.56343383 0.36660197
1.0874914 0.56416994 0.36661547
1.1125278 0.56297338 0.36663705
1.1378679 0.56325215 0.36655763
1.1630077 0.56292421 0.36610657
1.1880512 0.56369621 0.3658058
1.2129989 0.56390727 0.36705074
1.23787 0.56241888 0.36446419
1.2621145 0.56285846 0.36575803
1.2874517 0.56379396 0.36706337
1.3110161 0.56339848 0.36581042
1.3359337 0.56329197 0.36650223
1.360732 0.56312478 0.36729491
1.3869767 0.56393075 0.36914262
1.416927 0.56282842 0.36612219
1.4324157 0.56023616 0.36306506
1.0376236 0.58780277 0.36312369
1.0642167 0.58763659 0.36660039
1.0880339 0.58836097 0.36645064
1.1131541 0.58763349 0.36597541
1.1380173 0.58672202 0.36691785
1.1625168 0.58778435 0.3668457
1.1873744 0.58752573 0.36529049
1.2128953 0.58818507 0.36659512
1.2381425 0.58719796 0.36430356
1.2621602 0.5873034 0.36591542
1.2868965 0.58708739 0.3664172
1.3109248 0.58748001 0.36697641
1.3360473 0.58803868 0.36504507
1.3613812 0.58634019 0.36851171
1.387809 0.58795279 0.36845547
1.4173068 0.58722496 0.36615202
1.429539 0.58814049 0.36359459
1.0372255 0.61255479 0.36331272
1.0628536 0.61264527 0.36632675
1.087548 0.61245626 0.36542541
1.1132058 0.61199641 0.36595839
1.1378299 0.61136585 0.36515969
1.1626687 0.61221981 0.36499876
1.1877278 0.61185908 0.3645713
1.2124141 0.6119945 0.36581048
1.2373533 0.61214352 0.36435881
1.2622396 0.61180711 0.36574623
1.2876794 0.61118954 0.36606085
1.3114123 0.6121068 0.36567277
1.3363616 0.61266309 0.36582261
1.3613945 0.61124122 0.36652109
1.386322 0.61170042 0.36917078
1.416611 0.61267984 0.36523041
1.4293226 0.61197245 0.36362609
1.0366987 0.63777602 0.36290914
1.0629994 0.63739061 0.36779317
1.0879191 0.6377148 0.36585698
1.1130893 0.6376636 0.3650932
1.1382439 0.6366502 0.36581829
1.1620047 0.63754368 0.36520693
1.1871982 0.63743085 0.36414644
1.2120954 0.63627267 0.36657184
1.2374268 0.63697106 0.36428496
1.2626634 0.63731366 0.36592826
1.2878299 0.63693714 0.36631301
1.3127103 0.63767505 0.3654637
1.3381894 0.63826239 0.36550644
1.3619245 0.63679552 0.36842364
1.3864095 0.63765615 0.36959466
1.4172971 0.63794529 0.36462411
1.4297272 0.63742065 0.36335811
1.0370606 0.66284359 0.36317116
1.0630517 0.66286242 0.36745667
1.0879663 0.66347605 0.36670676
1.1126779 0.66199327 0.36509758
1.1374446 0.66225833 0.36396083
1.1626341 0.66265869 0.36453348
1.1877875 0.66294599 0.36494061
1.2127166 0.66207087 0.36593449
1.2374822 0.66364765 0.36244762
1.2619436 0.66256571 0.36583936
1.2875828 0.66256857 0.36460993
1.3123769 0.66217166 0.36511484
1.3378013 0.66249841 0.36595294
1.3631957 0.66225034 0.36728483
1.3882548 0.66364032 0.36949015
1.4177631 0.66284657 0.36462465
1.429496 0.66350555 0.36312228
1.0367111 0.68780196 0.36299714
1.0630655 0.68786663 0.36671311
1.0879693 0.68816799 0.36740804
1.1124076 0.68702978 0.36631304
1.1378418 0.68761271 0.3650412
1.1620739 0.68753362 0.36476079
1.187307 0.68791693 0.36523637
1.2122443 0.6876598 0.36602369
1.2372659 0.68825006 0.36253068
1.2627442 0.68772185 0.364952
1.2874482 0.68747711 0.36479983
1.3123759 0.6868394 0.36534649
1.3375367 0.6874783 0.36698636
1.3616531 0.68714434 0.36873052
1.3872812 0.68852621 0.37100559
1.4188905 0.68775755 0.36363351
1.4295673 0.6877178 0.36302158
1.0367607 0.7127375 0.36225939
1.0636666 0.71292865 0.36669269
1.0876279 0.71318996 0.36729929
1.1113136 0.71278793 0.36675769
1.1383708 0.71287811 0.36444113
1.1626122 0.71257031 0.365702
1.1877179 0.7124843 0.36547452
1.2123647 0.71185142 0.3658877
1.2372733 0.71191275 0.3623023
1.2627611 0.71294278 0.36449403
1.2874489 0.71281779 0.36536542
1.3120981 0.71269161 0.36713076
1.3377728 0.71318817 0.36778009
1.3614374 0.7122252 0.36903712
1.3867896 0.71282172 0.37098479
1.4179651 0.71221566 0.36470178
1.4292327 0.71253932 0.36305439
1.0367026 0.7376014 0.36196396
1.0629005 0.73754907 0.36698589
1.0875365 0.73810899 0.36686495
1.1115474 0.73818004 0.36573893
1.1378057 0.73779374 0.36479047
1.1631919 0.73769403 0.365935
1.1884366 0.73809516 0.36566874
1.2133496 0.73817289 0.36658794
1.2375362 0.73756337 0.36384395
1.2630572 0.73831832 0.36545691
1.2885187 0.73831618 0.36447692
1.3120631 0.73762804 0.36552179
1.3371638 0.73833823 0.36893967
1.3613205 0.73824978 0.37082863
1.3868222 0.73740351 0.37103328
1.4183916 0.7374596 0.36437967
1.4296204 0.73778296 0.36365852
1.0367821 0.76244789 0.36157775
1.0636584 0.76239097 0.36598003
1.0871333 0.76225638 0.36640435
1.1115718 0.76270008 0.36558074
1.1381934 0.76230419 0.36449745
1.1628876 0.76213121 0.365309
1.187893 0.76264083 0.36667722
1.2121538 0.76407421 0.36689743
1.237439 0.76367474 0.36411318
1.2628254 0.76309496 0.36570838
1.2884163 0.76289272 0.36382088
1.312392 0.76208109 0.36404374
1.3365648 0.76318324 0.36716348
1.3608304 0.76286888 0.36991966
1.3866181 0.76169443 0.37070242
1.418649 0.76250219 0.36447304
1.4293828 0.76328516 0.36314976
1.0368735 0.78728026 0.36186719
1.0629392 0.78730798 0.36680835
1.0876192 0.78674763 0.36665964
1.111097 0.78782523 0.36449867
1.1385607 0.78784001 0.36366165
1.1626862 0.78690481 0.36387396
1.1876156 0.78602141 0.36488625
1.2120314 0.78717524 0.36524373
1.2377522 0.78715265 0.36317822
1.263168 0.78641284 0.36462644
1.2886814 0.78768826 0.3648777
1.311788 0.78694749 0.36411199
1.3363364 0.78692144 0.36690813
1.3610427 0.78779101 0.36939031
1.3866583 0.78689039 0.37148869
1.4186953 0.78756905 0.36482114
1.4295937 0.78750956 0.36370686
1.0369952 0.81241107 0.3621096
1.0636129 0.81352079 0.36743006
1.0874256 0.8125006 0.36535653
1.1135808 0.81227511 0.36598027
1.1396363 0.81278646 0.36561438
1.1633953 0.81225431 0.36505815
1.1881018 0.81131816 0.36438432
1.2123733 0.81190205 0.36602831
1.237496 0.81177688 0.36292711
1.2623852 0.81159079 0.3654319
1.2887108 0.81311762 0.36630636
1.3126426 0.81222254 0.36570674
1.335973 0.81133163 0.36869806
1.3614393 0.81272358 0.36813855
1.3863851 0.81128955 0.37182432
1.4189491 0.81218541 0.364263
1.4294572 0.81233895 0.36338988
1.0220243 0.84762001 0.36118132
1.0349827 0.83838451 0.36238077
1.0634618 0.83703804 0.36765811
1.0882849 0.8368324 0.36720267
1.1126878 0.83570361 0.36908761
1.1387305 0.83671439 0.36649889
1.1631198 0.83733588 0.36639291
1.1880021 0.83628905 0.36543125
1.2116171 0.83736509 0.36788669
1.2373382 0.837497 0.36364856
1.2626568 0.83716315 0.36622941
1.2891988 0.83783972 0.36679873
1.3115149 0.83672798 0.36601567
1.3362361 0.83651596 0.3691169
1.3623879 0.83701587 0.37218073
1.3867033 0.83591413 0.37169078
1.4187028 0.83725882 0.3641696
1.4312277 0.84022641 0.36374995
0.9975571 0.87250054 0.36293244
1.0124363 0.86314946 0.36234111
1.0301235 0.85462451 0.36429554
1.0631706 0.86100304 0.37244189
1.0883008 0.85955894 0.3692106
1.1114526 0.85850334 0.36969286
1.1367698 0.85972923 0.36834127
1.1631608 0.86096144 0.37188488
1.187886 0.86063278 0.37220713
1.2117116 0.86105609 0.3717756
1.2383254 0.8621434 0.37306544
1.2627802 0.86050516 0.36976573
1.2897686 0.8626405 0.37193146
1.3120809 0.86129767 0.37133235
1.3353016 0.85971117 0.37184829
1.3606495 0.86111307 0.3725262
1.3857139 0.86043632 0.37252513
1.4141511 0.8628509 0.37030864
1.4419181 0.85830605 0.36181533
1.4568143 0.86895514 0.36248693
0.99642402 0.87967014 0.36179197
1.0122191 0.880512 0.36217254
1.03731 0.8800894 0.36244616
1.0622312 0.88044584 0.36218005
1.0874358 0.88104701 0.36237964
1.1126195 0.88103306 0.3622762
1.1376576 0.88108242 0.36244574
1.1627855 0.88101506 0.36268935
1.1874788 0.88128024 0.36226308
1.2121741 0.88120908 0.36238521
1.2375729 0.88137227 0.36195058
1.2622902 0.88136876 0.36242452
1.2875302 0.88139296 0.36230496
1.3127333 0.8814317 0.36227977
1.3377719 0.88143754 0.3623457
1.3627067 0.88158536 0.36237484
1.3874112 0.88164723 0.36179909
1.4125855 0.88162792 0.36252961
1.4371188 0.88176012 0.36234358
1.4599962 0.88068283 0.36214122
0.99731362 0.5211907 0.38728458
1.012964 0.52031666 0.38692573
1.0355822 0.51814443 0.38360971
1.0629827 0.51482427 0.379379
1.0879769 0.51458049 0.37922725
1.1125337 0.5142054 0.37925512
1.1376946 0.51453525 0.37958968
1.1625361 0.51418424 0.3792879
1.1871406 0.51440448 0.379123
1.2135437 0.51480955 0.37977719
1.2382077 0.5144093 0.3794581
1.2624092 0.51446164 0.37963328
1.2872915 0.51394838 0.37935978
1.3128564 0.51416475 0.3792052
1.3378596 0.51512957 0.37961999
1.3625044 0.51452333 0.37938058
1.3869652 0.51439029 0.3794575
1.4132533 0.51539171 0.38082451
1.4386493 0.52049994 0.38622224
1.4594357 0.52130842 0.38744554
0.99848139 0.5280152 0.3882392
1.0126823 0.53713083 0.38680008
1.0348834 0.53864825 0.38639259
1.0627782 0.53866929 0.3803218
1.0878856 0.53818744 0.3800559
1.1127616 0.53764254 0.38003123
1.1378888 0.53784031 0.38036993
1.1626198 0.53770411 0.38001198
1.1868758 0.53800189 0.38023186
1.2133483 0.53799117 0.38052765
1.2374078 0.53776383 0.3801764
1.2624946 0.53717965 0.38024893
1.2877378 0.53705204 0.38012266
1.312326 0.53764462 0.38023621
1.3377357 0.53798443 0.3801969
1.3619014 0.53782618 0.38017103
1.3866844 0.53789711 0.38029373
1.4158413 0.53759867 0.38374642
1.4395685 0.5414989 0.38687673
1.4579057 0.53305155 0.38769937
1.0221484 0.5531708 0.38871923
1.0358006 0.55747432 0.3853302
1.063702 0.56360847 0.3803297
1.0877929 0.56259191 0.37983531
1.1121436 0.56248063 0.38000369
1.1371408 0.56273365 0.38050923
1.1620739 0.56315523 0.38018882
1.1870613 0.56257319 0.37984067
1.2134318 0.56314677 0.38037822
1.2374994 0.56282276 0.38021526
1.2623641 0.56203961 0.38008323
1.2877325 0.56241918 0.3801561
1.3125591 0.56270325 0.38038731
1.3369899 0.5626927 0.3800506
1.36133 0.56280786 0.38037473
1.3876586 0.5636012 0.38010901
1.4142994 0.56112081 0.38121787
1.4331164 0.55611038 0.38640001
1.0422431 0.58745557 0.37999284
1.0626605 0.58769947 0.38033724
1.0877208 0.58738393 0.37979928
1.112754 0.58783913 0.38006213
1.1369138 0.58738244 0.38018885
1.1619678 0.58819807 0.38002402
1.1876791 0.58753884 0.3800531
1.2139132 0.5880338 0.38035512
1.237311 0.58812273 0.3802461
1.2621477 0.58732843 0.38022608
1.2879944 0.58800888 0.38013268
1.3131467 0.587358 0.38021746
1.3370448 0.58787096 0.37999415
1.3614399 0.5876767 0.38021186
1.3876855 0.58804309 0.38015586
1.412516 0.58777565 0.37999445
1.4281163 0.58758503 0.37743801
1.041759 0.6122728 0.37963179
1.0625232 0.61240923 0.3806594
1.0881922 0.61212671 0.38017738
1.1131669 0.61284912 0.38028598
1.1379937 0.61312276 0.3802613
1.1628422 0.61223954 0.38029599
1.1871402 0.6125614 0.38009763
1.2132906 0.61261344 0.38043615
1.2374954 0.61288357 0.38021126
1.262562 0.61246872 0.38021132
1.2879785 0.61312032 0.38024345
1.3135307 0.61281687 0.38012967
1.3374267 0.61303264 0.38019934
1.3615422 0.61197591 0.38026696
1.3882927 0.61281455 0.38024458
1.4128857 0.61217272 0.37996206
1.4281874 0.61173356 0.37750098
1.0424783 0.63749003 0.37983656
1.0628299 0.63734138 0.38051125
1.088209 0.63719368 0.38019076
1.112318 0.63741791 0.38010916
1.1375287 0.63798314 0.38011414
1.1628118 0.63719475 0.38037047
1.1870468 0.63748622 0.38007808
1.2138796 0.63712704 0.38049442
1.2380744 0.63673741 0.38033518
1.2627661 0.63704389 0.38010153
1.2878455 0.63760495 0.38024873
1.3132353 0.6380415 0.38023999
1.3375746 0.63774139 0.38032612
1.3617964 0.63738501 0.3803257
1.3875099 0.63736141 0.38030121
1.4129303 0.63760215 0.37999782
1.4281827 0.63744938 0.37801486
1.0420209 0.66271627 0.3797144
1.062575 0.66260469 0.38058713
1.0876898 0.66210508 0.38028178
1.1127617 0.66264176 0.38006285
1.1379247 0.66288489 0.38028508
1.1626233 0.6627689 0.38022044
1.1875129 0.66302794 0.3796674
1.2140151 0.66273856 0.38069111
1.2383748 0.66243482 0.38008356
1.2625471 0.66280484 0.38013652
1.2880236 0.6628105 0.38017091
1.3134249 0.66265845 0.38002566
1.3372792 0.66261125 0.38006562
1.3623096 0.66285908 0.38043076
1.3885226 0.66281456 0.38028276
1.4128256 0.66308922 0.38002175
1.4279827 0.6625936 0.37776196
1.0417583 0.68829793 0.37969011
1.0629313 0.68787092 0.38076204
1.0881135 0.6874789 0.38028914
1.1128881 0.68762553 0.38002449
1.138469 0.68689126 0.38026011
1.1627686 0.68726474 0.3802231
1.1874096 0.6885066 0.38000655
1.2144748 0.68761325 0.38067588
1.2382548 0.68779993 0.38025248
1.2624539 0.68876314 0.38028541
1.2884657 0.68801415 0.38019681
1.3142676 0.68748295 0.38006318
1.337519 0.68777823 0.38022286
1.3619907 0.68790144 0.38038954
1.3871059 0.68815917 0.38004965
1.4123154 0.68834984 0.37997597
1.4274396 0.68640083 0.37831497
1.0432464 0.71291804 0.37929243
1.0631123 0.71197224 0.38088816
1.0872834 0.7122376 0.38019904
1.1128298 0.71210176 0.38005129
1.138164 0.71167129 0.38031554
1.1625142 0.71174169 0.38027209
1.1878211 0.71226299 0.37982288
1.2148269 0.71188569 0.38053283
1.2384359 0.71184081 0.38033137
1.2626491 0.71257532 0.38023144
1.2885453 0.71263677 0.3802
1.3142908 0.71242648 0.38005692
1.3375882 0.71217889 0.38017032
1.3623396 0.71278924 0.38022846
1.3881803 0.71266907 0.3803831
1.4129965 0.71261483 0.38005164
1.4270864 0.71174312 0.37795767
1.0433558 0.7381376 0.37950358
1.0638273 0.7375437 0.38063428
1.087473 0.7378819 0.38011286
1.1131006 0.73774713 0.38004684
1.1387323 0.73806173 0.38023254
1.1624762 0.7381013 0.38047752
1.1881173 0.73762214 0.37956738
1.2154129 0.73801529 0.38041541
1.2383333 0.73782957 0.37970337
1.262893 0.73727596 0.37990215
1.2891324 0.73796821 0.38014573
1.3146548 0.73790419 0.37999207
1.3382266 0.7371707 0.38036579
1.3625119 0.73794395 0.38001838
1.3883358 0.73832762 0.38028738
1.412444 0.73787439 0.38010633
1.4275424 0.73737913 0.37724864
1.0424242 0.76357907 0.37935799
1.0632932 0.76333684 0.3806673
1.0879309 0.76325274 0.38016167
1.1127599 0.76348758 0.38026431
1.1382931 0.76363516 0.3804554
1.1623983 0.76322675 0.38029596
1.1878026 0.76343721 0.37980309
1.2149782 0.76418656 0.38063896
1.2382468 0.76350093 0.3799842
1.2622809 0.76324695 0.38019019
1.2879922 0.76319504 0.38020366
1.3144037 0.7630384 0.38001668
1.3378648 0.76325285 0.38021284
1.3621237 0.76321477 0.38036874
1.3884245 0.76345354 0.38069665
1.4132589 0.76307362 0.38002607
1.4275165 0.76172495 0.37713906
1.0419369 0.78694814 0.37949777
1.0629281 0.78796577 0.38079593
1.0877202 0.78747767 0.38004878
1.1120833 0.78760719 0.3800399
1.1372656 0.7881968 0.38024485
1.161974 0.78736931 0.38038623
1.1880007 0.7870239 0.37986386
1.2150307 0.78811902 0.38076514
1.2382419 0.7877785 0.37988418
1.2619678 0.78745282 0.38026837
1.2877908 0.78764439 0.38060832
1.3139578 0.78830409 0.38025597
1.3380451 0.78789109 0.38028431
1.3620392 0.78718901 0.38049576
1.3883469 0.78758848 0.38080919
1.4137504 0.78725839 0.38005015
1.4277782 0.78779268 0.37668321
1.0415375 0.81182671 0.37976167
1.0625908 0.81244487 0.38055694
1.0873599 0.8119272 0.38005379
1.1120012 0.81220865 0.38017425
1.1368434 0.81251806 0.38014218
1.1618692 0.81224769 0.38022032
1.1880729 0.81142318 0.37972596
1.215261 0.81251329 0.38056484
1.2383022 0.81222224 0.37998438
1.2622097 0.81207645 0.38026467
1.2878282 0.81191576 0.38025737
1.3136135 0.81281018 0.38025397
1.3374205 0.81199431 0.38003778
1.3619612 0.81210673 0.38040683
1.3879755 0.8126471 0.38041437
1.4133453 0.81217647 0.38020885
1.4273107 0.81306076 0.37711397
1.0217375 0.84625989 0.38965622
1.0355312 0.84188843 0.38430423
1.0628965 0.837286 0.3805719
1.0874757 0.83693147 0.38031885
1.1117253 0.83683181 0.38032418
1.1362246 0.83706641 0.38049728
1.1617649 0.83752871 0.38039702
1.188025 0.83681929 0.37994376
1.2151296 0.83789784 0.38070956
1.2379706 0.83756673 0.37977698
1.2618613 0.83745253 0.38027316
1.2879744 0.83687407 0.38038611
1.3137126 0.83702517 0.38025108
1.3378942 0.83671284 0.37990946
1.362076 0.83708572 0.38054571
1.3882018 0.8374576 0.38031411
1.4141245 0.83741677 0.3812663
1.4344465 0.8451364 0.38587242
0.9974041 0.87065279 0.38934168
1.0114323 0.86242509 0.38764277
1.0376923 0.86558855 0.38836488
1.062207 0.86731493 0.38727546
1.0870488 0.86544478 0.38594866
1.1115652 0.86547875 0.38636369
1.1363174 0.86536813 0.38623393
1.1622038 0.8657431 0.38608566
1.1878769 0.86521077 0.38604763
1.2135861 0.86569399 0.38616675
1.2372339 0.86613929 0.3865684
1.2624056 0.86570239 0.38651448
1.2873554 0.86549366 0.38595557
1.3124276 0.86583686 0.38598791
1.3378744 0.8656044 0.38624248
1.3629856 0.86573499 0.38625169
1.3880937 0.86690611 0.3864238
1.4144959 0.86482614 0.38651434
1.442199 0.85812253 0.38740715
1.457978 0.86740273 0.38807973
0.99593717 0.87743735 0.38643754
1.0127789 0.87791073 0.38585699
1.0354881 0.87731153 0.3859973
1.0634408 0.87764561 0.385472
1.0874443 0.87818092 0.38648465
1.1124847 0.87822211 0.38711637
1.1375778 0.87837511 0.38687861
1.1624738 0.87851036 0.38698825
1.1872665 0.87848115 0.38700187
1.2125822 0.87856001 0.38626713
1.2367001 0.87868041 0.38751072
1.2620251 0.87859893 0.38664168
1.2875406 0.87872875 0.387077
1.3124174 0.87878263 0.38723019
1.3376162 0.8788172 0.38674369
1.3624913 0.87882721 0.38717005
1.3871641 0.87881994 0.38645649
1.4117098 0.87885678 0.38675722
1.4379747 0.87871587 0.38673672
1.4591312 0.8783958 0.38630152
0.99721026 0.52142239 0.41177553
1.0129561 0.52116972 0.41259789
1.0316397 0.52143276 0.41230944
1.4234047 0.52165228 0.41124162
1.4394557 0.52171075 0.41256052
1.4588429 0.52191448 0.41205397
0.99761105 0.52735251 0.41172358
1.0125694 0.53806496 0.41242781
1.0329801 0.53846759 0.41270959
1.4225112 0.53681982 0.4122788
1.4388131 0.5415141 0.41254923
1.4582348 0.53343391 0.41256097
1.0227154 0.55404133 0.41078329
1.0322362 0.55483127 0.413434
1.4227133 0.5548721 0.41319573
1.434301 0.55464911 0.41249844
1.0205188 0.8453958 0.41451019
1.0306692 0.84331453 0.41251615
1.4216764 0.84451103 0.41346684
1.4373288 0.84526026 0.41318041
0.99685627 0.8701933 0.41352224
1.0114548 0.86550915 0.41332051
1.0376707 0.86871725 0.41317713
1.0619293 0.87040746 0.41317457
1.0863836 0.86969995 0.41373065
1.1115425 0.86888623 0.41440782
1.1368206 0.86895955 0.41396359
1.1621494 0.86896163 0.41345236
1.1876569 0.86893386 0.41358525
1.2129778 0.86909193 0.41406548
1.2375224 0.86893213 0.41370925
1.2622141 0.8692193 0.41426712
1.2877967 0.86913496 0.41368082
1.3129909 0.8686074 0.41284096
1.3383749 0.86839336 0.41388732
1.363589 0.86886775 0.41391709
1.3881563 0.86967778 0.41431895
1.4142324 0.86776501 0.41404673
1.4403738 0.86470449 0.41430348
1.4582555 0.86717784 0.41335049
0.99527496 0.87648588 0.40724391
1.0120589 0.87639809 0.40792
1.0334307 0.87606204 0.40873921
1.0650936 0.8759557 0.40968934
1.0884433 0.87664986 0.41075781
1.1125865 0.87680745 0.41122884
1.1376791 0.87708777 0.41176477
1.1630435 0.87772989 0.41240478
1.1873479 0.87773037 0.41194504
1.2123351 0.87776935 0.41267732
1.2379165 0.87779963 0.41279152
1.2624609 0.87783647 0.4125244
1.2880741 0.87801981 0.41201207
1.3119439 0.87758058 0.41276056
1.33692 0.87714249 0.41197392
1.3618646 0.87710559 0.41144806
1.3872118 0.87670887 0.41114965
1.4115019 0.87673771 0.41024923
1.4372873 0.87648237 0.40985975
1.4589084 0.87654722 0.40949735
0.9966253 0.52219284 0.43752533
1.0123177 0.5221318 0.43767729
1.0315475 0.52220452 0.4381009
1.4233013 0.5228368 0.43838704
1.4391769 0.52261317 0.43742996
1.4581246 0.52280027 0.43715128
0.99807131 0.52810836 0.43807399
1.0117407 0.53794384 0.43767264
1.0335166 0.53804064 0.43778309
1.4227082 0.5379225 0.43689719
1.4387649 0.54066312 0.43702951
1.4583292 0.53390127 0.43813869
1.0224025 0.55332035 0.43701634
1.0321029 0.55564916 0.43740636
1.4227526 0.55651265 0.43727282
1.434876 0.55513453 0.4375315
1.4323907 0.65937287 0.44986266
1.4355745 0.68670541 0.44969618
1.0314431 0.71735996 0.44999245
1.029774 0.81487584 0.44942519
1.0188903 0.84431887 0.43828487
1.0305291 0.840855 0.43867519
1.4219544 0.84191203 0.43897659
1.4389434 0.84371102 0.43791711
1.451851 0.84872496 0.43724149
0.99691713 0.86845279 0.43786103
1.0111132 0.86537451 0.43750274
1.0370669 0.86725962 0.43764496
1.0626342 0.86854053 0.43727991
1.0874753 0.86939037 0.4383516
1.1118928 0.86880088 0.43870878
1.136333 0.86884093 0.4386206
1.1625195 0.86893821 0.43852055
1.1875738 0.8688674 0.43831557
1.2122487 0.86896563 0.43867317
1.2368015 0.86887276 0.43776339
1.2617686 0.86910748 0.43884885
1.2871923 0.86876351 0.43822676
1.31305 0.86794651 0.43811682
1.3376898 0.86868894 0.4388369
1.3631523 0.86925435 0.43870521
1.3877317 0.8694123 0.43854788
1.4129277 0.86816013 0.43775591
1.4387652 0.86814541 0.43809402
1.4585965 0.86662424 0.4376027
1.0146927 0.87549925 0.42898849
1.036116 0.87551147 0.43009812
1.0688273 0.87568867 0.43264836
1.0913903 0.87578499 0.4324494
1.1150857 0.87608701 0.43379116
1.1393462 0.87627256 0.43705869
1.1631223 0.87720466 0.43679461
1.1870292 0.87783623 0.43738505
1.2127037 0.87786627 0.43726447
1.2370259 0.87801355 0.43737906
1.2626361 0.87786353 0.43727386
1.2871139 0.87787122 0.43712416
1.3112583 0.87693965 0.43713126
1.3368309 0.87636465 0.43602705
1.3606104 0.87600136 0.43331885
1.3874084 0.87562931 0.43178615
1.4077306 0.87564564 0.42842358
1.4450514 0.875085 0.42738867
1.4546285 0.8755244 0.42824438
0.99735183 0.522475 0.46138617
1.0133122 0.52275544 0.46248394
1.0307995 0.52294183 0.46181801
1.4239105 0.52354026 0.4625338
1.4389063 0.52322155 0.46201333
1.4579926 0.52326494 0.46199626
0.99729311 0.52823269 0.46516812
1.0114118 0.53750873 0.4629941
1.0342051 0.53783834 0.463431
1.4226922 0.53801948 0.46170703
1.4380035 0.53886259 0.4630028
1.4585645 0.53347802 0.46304727
1.0169036 0.56223249 0.46701887
1.0317564 0.56164032 0.46100429
1.4226463 0.56232572 0.46320176
1.4363306 0.56065786 0.46383011
1.4514664 0.56110853 0.47101039
1.0163498 0.58797157 0.46826217
1.0321463 0.5877955 0.46142772
1.422495 0.58764195 0.46536982
1.4372549 0.58726686 0.46647388
1.4519267 0.58774084 0.47204331
1.0162884 0.61292785 0.46823898
1.0313985 0.61270899 0.46143049
1.4225636 0.61230844 0.46574041
1.4375026 0.61262935 0.46668786
1.4544549 0.61028767 0.47280216
1.0166692 0.6379289 0.46763781
1.0314424 0.63756073 0.46191505
1.4225659 0.63775295 0.46583554
1.4365129 0.63750184 0.46659645
1.4534777 0.63647145 0.47283265
1.0166862 0.66266966 0.467958
1.031544 0.66260916 0.46121168
1.4224695 0.66237372 0.46452993
1.4373053 0.66226089 0.46690038
1.4528418 0.66262579 0.47240502
1.0167809 0.68710095 0.46760294
1.0315914 0.68744397 0.46110043
1.4222782 0.68694669 0.4645336
1.4375027 0.68745422 0.46710786
1.4527609 0.68862593 0.47244766
1.0166856 0.71241897 0.46729168
1.030773 0.71203345 0.46193513
1.4221374 0.7112391 0.46562061
1.4374396 0.7123574 0.46699229
1.4531637 0.71203738 0.47294825
1.0162048 0.73799002 0.46758005
1.0306846 0.73747814 0.46200618
1.4221643 0.73757321 0.46497437
1.4373724 0.73739147 0.46660128
1.4544785 0.73418927 0.47295165
1.0167738 0.762815 0.46776745
1.0307456 0.76265407 0.46169007
1.4221539 0.76315904 0.46524066
1.4380322 0.76238 0.46746799
1.4535204 0.75935066 0.47088477
1.016778 0.7874217 0.46740738
1.0311421 0.78750467 0.46035379
1.4221716 0.78812009 0.46439368
1.4379784 0.78725588 0.4673709
1.4514766 0.7853291 0.47171143
1.017272 0.81209028 0.46699703
1.0311246 0.81210983 0.46076646
1.4221336 0.81293905 0.46431321
1.4385318 0.81204724 0.46796203
1.4524772 0.81127965 0.47153717
1.0161784 0.8391766 0.46482375
1.0307881 0.83619142 0.46032479
1.4218936 0.83723104 0.46427777
1.4398779 0.83917701 0.46349335
1.4527977 0.84336591 0.46637923
0.99647915 0.86492693 0.46152446
1.0105669 0.86376137 0.46253458
1.0372187 0.86510342 0.46281096
1.0626304 0.86720216 0.46249551
1.0872803 0.86858988 0.46304828
1.1114224 0.868361 0.46209952
1.1365962 0.86714876 0.46255845
1.1629478 0.86905384 0.46295184
1.1878086 0.87061298 0.46159658
1.212472 0.8708384 0.46130887
1.2372258 0.8708204 0.46155107
1.2627864 0.87084758 0.46164745
1.2883761 0.86936355 0.46238703
1.3125479 0.8671993 0.46261179
1.3379869 0.86751735 0.46220371
1.3632252 0.86888897 0.4623017
1.3881519 0.86808151 0.46260309
1.4129899 0.86583722 0.46285602
1.4378518 0.86699313 0.46277884
1.4589009 0.8642447 0.46231338
1.0943034 0.87575412 0.47081512
1.1150409 0.87642777 0.46729428
1.1384617 0.87757742 0.46366334
1.1627123 0.87970579 0.46361068
1.1872232 0.88056773 0.46375448
1.2121086 0.88062888 0.46338123
1.237552 0.8807463 0.46342719
1.2623824 0.88064182 0.46343529
1.2876101 0.88028848 0.46335194
1.3123691 0.87886715 0.46402568
1.3357069 0.876894 0.46449372
1.3588468 0.87620401 0.46696874
1.3808488 0.87534636 0.4638404
0.9964906 0.52334213 0.4858515
1.0129104 0.52344692 0.48545143
1.0312463 0.52344573 0.48365873
1.4237522 0.52378339 0.49153301
1.439362 0.52367806 0.486256
1.4582975 0.52381802 0.48567596
0.99717426 0.53634465 0.49009004
1.0103532 0.53694743 0.48926854
1.0329767 0.53672004 0.48907945
1.4227512 0.53755748 0.48544195
1.4366429 0.53498149 0.48980939
1.4600902 0.53604031 0.48831427
0.99726743 0.56257147 0.49145606
1.0098093 0.56288075 0.48938856
1.0330106 0.5625332 0.48862001
1.4229846 0.5624783 0.48652765
1.4369698 0.56224722 0.48851734
1.4599732 0.56307715 0.48952496
0.99688715 0.58760965 0.49097642
1.010041 0.58766651 0.48984364
1.0324105 0.58739215 0.48840469
1.4226136 0.58764035 0.48735243
1.4377762 0.58759004 0.4887245
1.4598186 0.58807021 0.48940036
0.99684823 0.61313266 0.49098027
1.0100678 0.61275679 0.48950839
1.0324484 0.61245424 0.48901099
1.4226109 0.61256671 0.48766035
1.4378104 0.61275488 0.48857969
1.4594994 0.61277592 0.48916724
0.99687308 0.63785601 0.49086708
1.0100462 0.63776916 0.48967826
1.0321115 0.63761944 0.48888534
1.422533 0.63815862 0.48667961
1.4381336 0.63724148 0.48877135
1.4593753 0.63690126 0.48943633
0.99679732 0.66235077 0.49064797
1.0101358 0.66255611 0.48949811
1.0316442 0.66226691 0.48897296
1.4224842 0.66283631 0.48611534
1.4384387 0.66272575 0.48926464
1.4596847 0.66249335 0.48931977
0.99659532 0.68722713 0.49092919
1.0103973 0.68710494 0.48939553
1.0315665 0.68761182 0.48899242
1.4224987 0.68802464 0.4875606
1.4383407 0.68756783 0.48957795
1.4595697 0.68745083 0.48960462
0.99669152 0.71246785 0.49118125
1.0103661 0.71227133 0.48946211
1.0322257 0.71226752 0.48902071
1.4223273 0.71264851 0.48604879
1.4386611 0.71165633 0.48894158
1.4594085 0.71218097 0.48968399
0.99650443 0.73800182 0.49060768
1.0100926 0.73766077 0.48910189
1.0314258 0.7374903 0.48942113
1.4223464 0.73758912 0.48687732
1.4382389 0.73712337 0.48912242
1.4589471 0.73787349 0.48913005
0.99680501 0.76279366 0.49105069
1.0097294 0.76240146 0.48921019
1.0312047 0.76251245 0.48952186
1.4223974 0.76293766 0.48733616
1.4391166 0.76300693 0.48903677
1.4591337 0.7626639 0.48902705
0.99692887 0.78766918 0.49108496
1.0094984 0.78675663 0.48891771
1.0313532 0.78803825 0.48934093
1.4220852 0.78769612 0.48677376
1.4382833 0.78764534 0.49019587
1.4592669 0.78710318 0.48937401
0.99680787 0.81192863 0.49038923
1.0093607 0.81224841 0.48882654
1.0312248 0.81284255 0.48919138
1.4220726 0.81225646 0.48678151
1.4403952 0.81208229 0.48861456
1.4595859 0.81262571 0.48954943
0.99667555 0.83599603 0.48964587
1.0096086 0.83686006 0.48865882
1.0315834 0.83685935 0.48844585
1.4221482 0.83661616 0.48656833
1.4394407 0.83796978 0.48889387
1.4589353 0.83743894 0.49003187
0.99671698 0.86023968 0.48846218
1.011413 0.86171055 0.48817661
1.0377517 0.86297083 0.48773631
1.0622878 0.86765826 0.48704046
1.0866005 0.86977947 0.48750669
1.1116991 0.87055522 0.48776013
1.1362221 0.87065709 0.48637405
1.1606731 0.87201381 0.4839218
1.185853 0.87324023 0.48287955
1.2113122 0.8736223 0.48027158
1.2364718 0.87346584 0.48016188
1.2607186 0.87341535 0.48134199
1.2898803 0.87249911 0.48255223
1.3133527 0.87109941 0.48613635
1.3380147 0.87019122 0.48767036
1.3639653 0.86962712 0.48686266
1.3879163 0.86907613 0.48736149
1.4122646 0.8653723 0.48735869
1.4375941 0.86344075 0.48838785
1.4597045 0.86129647 0.48766229
1.093712 0.87614274 0.48960426
1.1134558 0.87803394 0.48837572
1.1380117 0.88052523 0.4888849
1.1626676 0.88320899 0.48891249
1.187511 0.88396698 0.48801857
1.2126274 0.88408607 0.48804846
1.2372159 0.88413161 0.48767322
1.2623415 0.88416481 0.48792684
1.2871052 0.88396478 0.48862338
1.3122452 0.88219523 0.48856199
1.3374602 0.87927926 0.48798102
1.3605525 0.87733167 0.48884121
1.3830194 0.87602425 0.49239692
0.99832845 0.52206969 0.50164342
1.015398 0.52302438 0.50209576
1.0334593 0.52329093 0.50085038
1.4410468 0.52357095 0.5025844
1.4580065 0.52374101 0.50272322
0.99695319 0.53646964 0.50302726
1.0129501 0.53717536 0.50323671
1.0320098 0.53869492 0.50300467
1.4233998 0.53625727 0.50199258
1.4379439 0.53753316 0.50311106
1.4595656 0.53751111 0.50275445
0.9961983 0.56362128 0.50244004
1.0115364 0.56280005 0.50334793
1.0316981 0.56188107 0.50302082
1.4238393 0.56584275 0.5019663
1.4382274 0.56243956 0.50295818
1.4585972 0.56238943 0.50275517
0.99589157 0.58736217 0.50279349
1.011778 0.58776069 0.50330895
1.0320148 0.58682287 0.50311565
1.4237905 0.58682299 0.50286734
1.4376458 0.58776271 0.50299031
1.4583787 0.58726686 0.5029915
0.99605989 0.61157298 0.50280505
1.012733 0.61266136 0.50320303
1.0326637 0.61168528 0.50374597
1.4240521 0.61527622 0.50258476
1.4374036 0.61243254 0.5029642
1.4580473 0.61263573 0.50289237
0.99686521 0.63628978 0.50262475
1.0126209 0.6373297 0.50294572
1.0320134 0.6384688 0.50412691
1.4238713 0.63843858 0.50122654
1.4380058 0.63799757 0.50303614
1.4591051 0.63759768 0.50283438
0.9961676 0.66103101 0.50247139
1.0120059 0.66276723 0.50322843
1.0315551 0.66461772 0.50460553
1.4239397 0.66368824 0.50130045
1.4385681 0.66245556 0.50307769
1.4592333 0.66207284 0.50288343
0.99724507 0.68569535 0.50276828
1.0124537 0.6880812 0.5034306
1.0300728 0.68693286 0.5041979
1.4242139 0.68661928 0.50146157
1.4387046 0.68700057 0.50320727
1.459204 0.68794876 0.5026812
0.99796611 0.71426189 0.50220364
1.0135046 0.71202326 0.50365055
1.031665 0.71243858 0.50287461
1.4232755 0.71049052 0.50220799
1.4385831 0.71220446 0.50315058
1.4594594 0.71298683 0.5027867
0.99710584 0.73690128 0.50201422
1.0130614 0.73781794 0.50353068
1.0317265 0.73791927 0.50306243
1.4235364 0.73711866 0.50177258
1.4383566 0.73772442 0.50307608
1.4605551 0.73815548 0.50303084
0.99613363 0.76133233 0.50177008
1.0125356 0.76333332 0.50340146
1.0328138 0.76242864 0.50446391
1.4235551 0.76361614 0.50178736
1.438363 0.76293939 0.50309789
1.4595071 0.76259863 0.50273705
0.9971242 0.78671002 0.50334483
1.0130284 0.78769767 0.50324625
1.0329682 0.78879356 0.5047909
1.4234275 0.78740656 0.50219101
1.4382582 0.78766668 0.50304711
1.4590768 0.78759646 0.50288779
0.99672908 0.81398678 0.50282234
1.012494 0.81203449 0.50339293
1.0305157 0.81312191 0.50433707
1.423956 0.81104624 0.50189292
1.4384809 0.81239706 0.50307661
1.4589647 0.81255865 0.50299585
0.99645972 0.83540982 0.5054003
1.0121515 0.83463043 0.50398469
1.0307556 0.83416069 0.50411791
1.4236103 0.83113068 0.50157672
1.4384272 0.83267397 0.50290674
1.4594458 0.83390212 0.50277251
0.99664438 0.85751653 0.51222885
1.0118779 0.85813284 0.51266164
1.037375 0.86036527 0.51277548
1.0627066 0.86697561 0.51236397
1.0861502 0.8707723 0.51216948
1.1096456 0.87245667 0.50995183
1.1365049 0.87322307 0.50637382
1.1618874 0.87441003 0.50463021
1.2905047 0.87422788 0.50404423
1.3153597 0.87300086 0.5051071
1.3404082 0.8732329 0.50924164
1.3642352 0.87111402 0.51151812
1.3885989 0.86897087 0.51221663
1.4124658 0.86304975 0.51241577
1.4373982 0.85963404 0.51255995
1.4593155 0.85982108 0.51260448
1.0909914 0.8773489 0.51468074
1.1131094 0.87959307 0.51355219
1.1376131 0.88304204 0.51353222
1.1628953 0.8865934 0.51289809
1.1871887 0.8899228 0.5124172
1.2121695 0.89069086 0.51192939
1.2377214 0.89070523 0.51187158
1.2624753 0.89008909 0.51193529
1.2874893 0.88849103 0.5126394
1.3123885 0.88469112 0.51273918
1.3369415 0.88115406 0.51363176
1.3610263 0.87855828 0.51374924
1.3812971 0.87663078 0.51471806
1.1910099 0.90107453 0.52138323
1.2118628 0.90208542 0.52132064
1.2350516 0.90179884 0.52033174
1.2599399 0.90208399 0.52089483
1.2809229 0.90073121 0.52086246
0.99577522 0.84897935 0.53952301
1.0109869 0.84918296 0.54003102
1.0315233 0.8496027 0.53601623
1.4190581 0.84932828 0.5341469
1.4393749 0.84929287 0.53820109
