# .PCD v0.7 - Point Cloud Data file format
VERSION 0.7
FIELDS x y z
SIZE 4 4 4
TYPE F F F
COUNT 1 1 1
WIDTH 1438
HEIGHT 1
VIEWPOINT 0 0 0 1 0 0 0
POINTS 1438
DATA ascii
0.36263824 0.016031003 0.33898887
0.38718104 0.016301973 0.33852944
0.41289639 0.016833439 0.33827376
0.43768466 0.018951809 0.33719519
0.45970455 0.019845998 0.33711901
-0.0025104482 0.02689744 0.33913544
0.01345649 0.036427196 0.33801031
0.029931815 0.045532033 0.33764622
0.44319126 0.042701334 0.33698055
0.45747113 0.032222502 0.33771023
0.022539057 0.052854877 0.33950922
0.037855394 0.061858475 0.33644506
0.06544885 0.062098783 0.33657536
0.087746643 0.059204318 0.34209582
0.11222262 0.058928605 0.34008411
0.13771713 0.059050504 0.34036377
0.16252196 0.059244592 0.33995077
0.18734008 0.059211057 0.33970949
0.21278702 0.059130959 0.34018317
0.23776798 0.059060071 0.34026819
0.26277128 0.05958052 0.34011531
0.28832045 0.058977216 0.33974534
0.31318492 0.059752122 0.34029242
0.33780333 0.059557311 0.34039569
0.36238098 0.059941489 0.34012374
0.38748726 0.06011375 0.34010941
0.41508341 0.062634781 0.33533111
0.43187866 0.060205925 0.33898091
0.038843509 0.087885216 0.33704042
0.064979188 0.087750904 0.33800751
0.088041209 0.087646388 0.34425974
0.11301187 0.087994881 0.34356767
0.13741383 0.087813452 0.3433952
0.16215067 0.08746957 0.34328151
0.18740803 0.087694936 0.34371066
0.21250382 0.087540001 0.34301293
0.23767118 0.087258942 0.34340826
0.26240459 0.087441944 0.34330034
0.28809658 0.088043936 0.34345752
0.3129324 0.087843604 0.34341285
0.33760127 0.088041268 0.34357592
0.36251205 0.088037804 0.34354126
0.38726938 0.087834217 0.34322536
0.41513613 0.087659836 0.3363139
0.42951542 0.088368468 0.34123766
0.039112374 0.11243563 0.33732742
0.06481757 0.11294831 0.33757284
0.087801337 0.11271291 0.34410149
0.11278411 0.11286816 0.34332213
0.13809587 0.11294481 0.34315073
0.16322213 0.11318084 0.34272078
0.18731517 0.11319474 0.34305155
0.2127227 0.11280344 0.34279442
0.23756419 0.11326002 0.3433601
0.26270157 0.11273357 0.34311527
0.28868073 0.11311834 0.34284291
0.3129667 0.11324283 0.34323522
0.33705103 0.11325532 0.34303313
0.36219275 0.11245476 0.34315771
0.38691431 0.11338048 0.34258503
0.41464573 0.11249614 0.33624449
0.42936718 0.112942 0.34017834
0.038940065 0.13702402 0.33711368
0.065388516 0.13745648 0.33818218
0.088073917 0.13722822 0.34448576
0.11274942 0.13735227 0.34365797
0.13797563 0.13656658 0.34312209
0.16301344 0.13665348 0.34262145
0.18715611 0.13744973 0.34284967
0.21224843 0.13774797 0.34276709
0.23733218 0.13791798 0.3433463
0.26269835 0.13726899 0.34351164
0.28819716 0.13736622 0.34305128
0.31221506 0.13693871 0.34365448
0.33731568 0.13702609 0.34332287
0.3620778 0.13752995 0.34315321
0.38635451 0.1374604 0.3426106
0.41422322 0.13753927 0.33599034
0.42925307 0.13793363 0.34071153
0.038834151 0.1625486 0.33689815
0.065304071 0.1625084 0.33817777
0.08784835 0.16240121 0.34440523
0.11238443 0.16247174 0.34363562
0.13812605 0.16192253 0.34320784
0.16307279 0.16189726 0.34312651
0.18753621 0.16231465 0.34334844
0.21282098 0.16289082 0.34273481
0.23752093 0.16208473 0.34339964
0.26236793 0.16240655 0.34331191
0.2878882 0.16279247 0.34335962
0.31245938 0.16199896 0.3435367
0.33755517 0.16213444 0.34356084
0.36231539 0.16260439 0.34346178
0.3867965 0.16277815 0.34297013
0.41451049 0.16251439 0.33550924
0.42944857 0.16302913 0.34035918
0.038680311 0.18769008 0.33683443
0.065111049 0.18805814 0.33717161
0.088083602 0.18729095 0.34397858
0.11213987 0.18749356 0.34337816
0.1379361 0.18756214 0.34304631
0.16323487 0.18740298 0.34266952
0.18782544 0.18735559 0.3431713
0.21290645 0.18743326 0.34285429
0.23757704 0.18691614 0.34328374
0.26294312 0.18758185 0.34330991
0.28801298 0.18780765 0.34354916
0.31224668 0.18729384 0.34332076
0.33724168 0.18755355 0.34386161
0.36233315 0.18745162 0.34384742
0.38679147 0.18737864 0.34308675
0.41391572 0.18742017 0.33571583
0.42926705 0.18828209 0.34042785
0.039067253 0.21214594 0.33691016
0.065609783 0.21226424 0.33668506
0.088457525 0.21231709 0.34413883
0.11191377 0.2119631 0.34307742
0.13719994 0.21246731 0.34317708
0.16386512 0.21252316 0.34332001
0.18794028 0.21240154 0.34349406
0.21309984 0.21258652 0.34274873
0.2379479 0.21252789 0.34347129
0.26254854 0.21249124 0.34344912
0.28809971 0.21251264 0.34319571
0.31202063 0.21251045 0.34343126
0.33745331 0.21221775 0.3439832
0.36233827 0.2120098 0.34355271
0.38736764 0.21252486 0.34291726
0.41469321 0.21221521 0.33511227
0.42944464 0.21299271 0.3400183
0.03905119 0.23764743 0.33673495
0.065870598 0.23730873 0.33668149
0.088874295 0.23741587 0.34430566
0.11155631 0.23712771 0.3434478
0.13663225 0.2376269 0.34349039
0.16313168 0.23767561 0.34328392
0.18817194 0.23711078 0.34354708
0.21307293 0.23757166 0.34296766
0.23792781 0.23745713 0.34361336
0.26287872 0.2373969 0.34312662
0.28841245 0.23743948 0.34310913
0.31240284 0.23774166 0.34336555
0.33774447 0.23728091 0.34383759
0.36183888 0.237262 0.34317535
0.38653436 0.23784608 0.34298822
0.41432771 0.23751242 0.33597142
0.42904428 0.23782836 0.34050676
0.038599618 0.26282072 0.33703893
0.066084921 0.26272225 0.33798185
0.088709153 0.26256624 0.34439793
0.11205822 0.26276493 0.34334016
0.1367024 0.2629779 0.34350318
0.16265604 0.2625351 0.34348899
0.18828325 0.26229903 0.34333622
0.2127607 0.2626743 0.34325945
0.23772858 0.26190397 0.3436141
0.26299828 0.26251575 0.34326538
0.28858992 0.26290345 0.34319359
0.312567 0.26229861 0.34337232
0.33699432 0.26281035 0.34393278
0.36188608 0.26316378 0.34319383
0.38692206 0.26264355 0.34293041
0.41417336 0.2627182 0.33586851
0.42934325 0.26284671 0.33998495
0.038476869 0.28733167 0.33634913
0.065958768 0.28725821 0.33940166
0.087744668 0.28689432 0.34445927
0.11227896 0.28731447 0.34344605
0.13740173 0.28724414 0.34352696
0.16267432 0.28697526 0.34341028
0.18786241 0.28684455 0.34327248
0.21322107 0.28730452 0.34306642
0.23742847 0.2871106 0.3435387
0.26247925 0.2869139 0.34313685
0.28841782 0.28735059 0.34325898
0.3127262 0.28700739 0.34354988
0.33671376 0.28742558 0.34384584
0.36167234 0.28797644 0.34329206
0.38685846 0.2865909 0.34309289
0.41423503 0.28747818 0.33656532
0.42944357 0.28763428 0.34053445
0.038637564 0.31231782 0.33649549
0.066049464 0.31295168 0.3385224
0.087476343 0.31198582 0.34441367
0.11262073 0.31233659 0.34326646
0.13777235 0.31216788 0.34368375
0.16266236 0.31224057 0.34366971
0.18808235 0.31168985 0.34304738
0.21322381 0.3122676 0.34288439
0.23755841 0.31251255 0.34369451
0.26266032 0.31198204 0.34292123
0.28858161 0.31194535 0.34317058
0.31289145 0.31212458 0.34348357
0.33712119 0.31215411 0.34360293
0.36164168 0.31238002 0.34353989
0.386718 0.31186613 0.34290704
0.41472149 0.312112 0.33610505
0.42937383 0.31212711 0.34082934
0.023270702 0.34906957 0.34160322
0.037908185 0.33817711 0.33706775
0.065813005 0.33683011 0.33783168
0.087709233 0.33649877 0.34411839
0.11237768 0.33724743 0.34322444
0.13768853 0.33743834 0.34340206
0.16240135 0.33688512 0.3430081
0.18801995 0.33633649 0.34272969
0.21341534 0.33715481 0.34281239
0.23778117 0.33673456 0.3432512
0.26254094 0.33703876 0.34269726
0.28824192 0.33719116 0.34302577
0.31274953 0.33687893 0.34322938
0.33745888 0.33668837 0.34296212
0.36201373 0.33690766 0.34269223
0.3872371 0.33636707 0.34217536
0.41502342 0.33690673 0.33525586
0.42969283 0.33716601 0.34086189
-0.00087218732 0.37235019 0.34012246
0.013964161 0.36453253 0.3377237
0.032368198 0.35446522 0.33451247
0.069255322 0.35363474 0.33667722
0.088499211 0.3535566 0.3368246
0.11258408 0.35354945 0.33569664
0.13730121 0.35381737 0.33545911
0.16248161 0.35362116 0.33516583
0.18774325 0.35367614 0.33533177
0.21289554 0.35386893 0.33517826
0.23758604 0.35388455 0.33659109
0.26252472 0.35387424 0.33506861
0.28760681 0.35394946 0.33493939
0.31288832 0.3539257 0.33567134
0.33750457 0.3537769 0.33555323
0.36246094 0.35394752 0.33517814
0.38805673 0.35372368 0.33520675
0.41208199 0.35360527 0.33409417
0.44000122 0.35851732 0.33689588
0.45541498 0.36976561 0.3382352
-0.0033220958 0.38141283 0.33716273
0.011721418 0.38295868 0.33756271
0.037123363 0.38331902 0.33782741
0.06186229 0.38342911 0.33775151
0.087730072 0.38369834 0.33745927
0.11294849 0.3836323 0.33780971
0.13752198 0.38354573 0.33826819
0.16215666 0.38382977 0.33756757
0.18718398 0.38394743 0.33703023
0.21239682 0.38379791 0.33775857
0.23768915 0.38393632 0.33763513
0.26267862 0.38403988 0.33740869
0.28732187 0.38406497 0.3372055
0.31252337 0.38403013 0.33742103
0.33769256 0.38417426 0.33776385
0.36216003 0.38422552 0.33772141
0.38718688 0.38434416 0.33739626
0.41250941 0.38422522 0.33781907
0.43792632 0.38480204 0.33787468
0.45965034 0.3826403 0.3373372
-0.002485361 0.020269629 0.36238891
0.0126699 0.019489292 0.36216471
0.037289467 0.012749543 0.36224762
0.06289266 0.007119291 0.36316758
0.087257557 0.00737896 0.36312056
0.11220165 0.0072868024 0.36316979
0.13731293 0.0077533633 0.3637394
0.16218591 0.0074416567 0.36383533
0.18685791 0.0073052533 0.36349845
0.21256018 0.0079467343 0.36428082
0.23797692 0.0071321852 0.3634443
0.26233545 0.0076644914 0.36383274
0.28719068 0.0078500174 0.36380136
0.31219506 0.0075176507 0.3639631
0.33764508 0.0075353999 0.3637543
0.36236429 0.0078115305 0.36405441
0.3873744 0.0078472989 0.3634828
0.41227075 0.0082096038 0.36302045
0.43645629 0.017739687 0.36217934
0.46009669 0.020697733 0.3624368
-0.0025467826 0.027031459 0.36435464
0.013323231 0.036817104 0.36254889
0.033817753 0.041535821 0.36576417
0.062894635 0.0369641 0.37227288
0.08778578 0.038010411 0.37236837
0.11164051 0.037383426 0.37226474
0.13743377 0.037803296 0.37241814
0.16366468 0.036709711 0.37235054
0.18863353 0.037409063 0.37257147
0.21337637 0.037958696 0.37187976
0.23855412 0.037074018 0.37242436
0.26179662 0.037254583 0.37214273
0.28720814 0.038148668 0.37207431
0.31158945 0.037688367 0.37208211
0.33658531 0.037519567 0.3723112
0.36127803 0.038121026 0.37187085
0.38763836 0.037981331 0.37202808
0.4139252 0.037592366 0.37066123
0.44278321 0.04250418 0.36220837
0.45788547 0.032774027 0.36277875
0.02253411 0.052460186 0.3634201
0.035692412 0.06194381 0.36279839
0.06442304 0.063433819 0.36660197
0.087491415 0.064169951 0.36661547
0.11252787 0.06297338 0.36663705
0.13786799 0.063252151 0.36655763
0.1630078 0.062924221 0.36610657
0.18805121 0.063696228 0.3658058
0.21299881 0.063907281 0.36705074
0.23787002 0.062418889 0.36446419
0.26211455 0.06285844 0.36575803
0.28745177 0.06379395 0.36706337
0.31101605 0.06339851 0.36581042
0.33593372 0.063291974 0.36650223
0.36073196 0.063124783 0.36729491
0.38697678 0.063930735 0.36914262
0.41692695 0.062828436 0.36612219
0.43241575 0.060236149 0.36306506
0.037623651 0.087802798 0.36312369
0.064216688 0.087636575 0.36660039
0.088033915 0.088360965 0.36645064
0.1131541 0.087633513 0.36597541
0.13801734 0.086722039 0.36691785
0.16251686 0.087784372 0.3668457
0.18737429 0.08752571 0.36529049
0.21289527 0.088185072 0.36659512
0.23814251 0.087197952 0.36430356
0.26216018 0.08730337 0.36591542
0.28689641 0.087087408 0.3664172
0.31092471 0.087480024 0.36697641
0.33604729 0.088038683 0.36504507
0.36138117 0.086340174 0.36851171
0.38780904 0.0879528 0.36845547
0.41730675 0.08722496 0.36615202
0.42953897 0.088140517 0.36359459
0.037225444 0.11255478 0.36331272
0.06285353 0.11264529 0.36632675
0.08754804 0.11245627 0.36542541
0.11320575 0.11199639 0.36595839
0.1378299 0.11136583 0.36515969
0.16266865 0.11221981 0.36499876
0.18772778 0.11185905 0.3645713
0.21241419 0.11199453 0.36581048
0.23735334 0.11214355 0.36435881
0.26223961 0.11180713 0.36574623
0.28767946 0.11118957 0.36606085
0.31141227 0.1121068 0.36567277
0.33636159 0.11266311 0.36582261
0.36139452 0.11124121 0.36652109
0.38632208 0.11170044 0.36917078
0.41661096 0.11267982 0.36523041
0.42932257 0.11197244 0.36362609
0.036698744 0.137776 0.36290914
0.06299939 0.13739058 0.36779317
0.087919109 0.13771479 0.36585698
0.11308931 0.1376636 0.3650932
0.13824393 0.13665023 0.36581829
0.16200468 0.13754371 0.36520693
0.18719816 0.13743083 0.36414644
0.21209534 0.13627265 0.36657184
0.23742676 0.13697106 0.36428496
0.26266342 0.13731366 0.36592826
0.28782994 0.13693711 0.36631301
0.31271026 0.13767503 0.3654637
0.33818942 0.13826239 0.36550644
0.36192456 0.13679555 0.36842364
0.38640946 0.13765615 0.36959466
0.41729718 0.13794532 0.36462411
0.4297272 0.13742062 0.36335811
0.037060577 0.16284361 0.36317116
0.063051693 0.16286243 0.36745667
0.087966315 0.16347606 0.36670676
0.11267793 0.16199327 0.36509758
0.13744457 0.16225833 0.36396083
0.1626341 0.16265869 0.36453348
0.18778758 0.16294602 0.36494061
0.21271653 0.16207084 0.36593449
0.23748221 0.16364762 0.36244762
0.26194361 0.16256574 0.36583936
0.28758273 0.16256858 0.36460993
0.31237683 0.16217166 0.36511484
0.33780134 0.1624984 0.36595294
0.36319572 0.16225035 0.36728483
0.38825476 0.16364034 0.36949015
0.41776311 0.16284655 0.36462465
0.42949605 0.16350555 0.36312228
0.036711093 0.18780193 0.36299714
0.063065559 0.18786664 0.36671311
0.087969258 0.188168 0.36740804
0.11240762 0.18702978 0.36631304
0.13784182 0.18761271 0.3650412
0.16207381 0.18753359 0.36476079
0.18730699 0.18791692 0.36523637
0.21224426 0.18765979 0.36602369
0.23726599 0.18825009 0.36253068
0.26274416 0.18772185 0.364952
0.28744817 0.18747713 0.36479983
0.3123759 0.18683939 0.36534649
0.33753672 0.18747829 0.36698636
0.36165315 0.18714434 0.36873052
0.38728124 0.18852621 0.37100559
0.41889051 0.18775754 0.36363351
0.4295674 0.1877178 0.36302158
0.036760636 0.2127375 0.36225939
0.063666582 0.21292865 0.36669269
0.087627918 0.21318994 0.36729929
0.11131364 0.21278794 0.36675769
0.13837069 0.21287814 0.36444113
0.16261221 0.21257028 0.365702
0.1877179 0.21248429 0.36547452
0.21236472 0.21185142 0.3658877
0.23727335 0.21191277 0.3623023
0.26276109 0.21294279 0.36449403
0.28744891 0.21281782 0.36536542
0.31209818 0.21269159 0.36713076
0.33777279 0.21318816 0.36778009
0.36143747 0.21222518 0.36903712
0.3867895 0.21282171 0.37098479
0.41796505 0.21221565 0.36470178
0.42923275 0.2125393 0.36305439
0.036702633 0.23760141 0.36196396
0.062900499 0.23754905 0.36698589
0.087536484 0.23810898 0.36686495
0.11154731 0.23818007 0.36573893
0.13780576 0.23779374 0.36479047
0.16319193 0.237694 0.365935
0.18843663 0.23809515 0.36566874
0.21334955 0.23817289 0.36658794
0.23753619 0.23756334 0.36384395
0.26305717 0.23831834 0.36545691
0.28851864 0.23831619 0.36447692
0.31206313 0.23762804 0.36552179
0.33716378 0.23833822 0.36893967
0.36132044 0.23824976 0.37082863
0.38682219 0.2374035 0.37103328
0.41839156 0.23745961 0.36437967
0.42962036 0.23778293 0.36365852
0.036782138 0.26244789 0.36157775
0.063658386 0.262391 0.36598003
0.087133266 0.26225635 0.36640435
0.11157175 0.26270008 0.36558074
0.13819332 0.26230419 0.36449745
0.16288763 0.26213124 0.365309
0.18789302 0.26264083 0.36667722
0.21215375 0.26407418 0.36689743
0.23743904 0.26367477 0.36411318
0.26282534 0.26309496 0.36570838
0.28841624 0.26289272 0.36382088
0.31239206 0.26208109 0.36404374
0.33656484 0.26318321 0.36716348
0.36083043 0.26286891 0.36991966
0.3866182 0.26169443 0.37070242
0.41864902 0.26250222 0.36447304
0.4293828 0.26328516 0.36314976
0.036873512 0.28728026 0.36186719
0.062939227 0.28730795 0.36680835
0.087619171 0.28674763 0.36665964
0.11109703 0.28782523 0.36449867
0.13856068 0.28784001 0.36366165
0.16268624 0.28690484 0.36387396
0.18761557 0.28602141 0.36488625
0.21203141 0.28717524 0.36524373
0.2377522 0.28715268 0.36317822
0.26316795 0.28641284 0.36462644
0.28868142 0.28768829 0.3648777
0.31178793 0.28694746 0.36411199
0.33633643 0.28692144 0.36690813
0.3610428 0.28779101 0.36939031
0.38665834 0.28689042 0.37148869
0.41869536 0.28756902 0.36482114
0.42959365 0.28750953 0.36370686
0.036995128 0.31241104 0.3621096
0.063612983 0.31352076 0.36743006
0.087425619 0.31250063 0.36535653
0.11358085 0.31227511 0.36598027
0.13963631 0.31278643 0.36561438
0.16339527 0.31225434 0.36505815
0.18810174 0.31131813 0.36438432
0.2123732 0.31190208 0.36602831
0.23749605 0.31177688 0.36292711
0.26238522 0.31159076 0.3654319
0.28871083 0.31311765 0.36630636
0.3126426 0.31222254 0.36570674
0.33597308 0.3113316 0.36869806
0.36143935 0.31272358 0.36813855
0.38638508 0.31128958 0.37182432
0.41894907 0.31218544 0.364263
0.42945725 0.31233895 0.36338988
0.022024291 0.34761998 0.36118132
0.034982633 0.33838454 0.36238077
0.063461818 0.33703801 0.36765811
0.088284872 0.33683243 0.36720267
0.11268777 0.33570361 0.36908761
0.13873059 0.33671442 0.36649889
0.16311976 0.33733588 0.36639291
0.18800209 0.33628908 0.36543125
0.21161713 0.33736509 0.36788669
0.23733822 0.33749697 0.36364856
0.26265681 0.33716315 0.36622941
0.28919873 0.33783972 0.36679873
0.31151482 0.33672801 0.36601567
0.33623615 0.33651596 0.3691169
0.36238787 0.33701587 0.37218073
0.38670331 0.33591413 0.37169078
0.4187029 0.33725882 0.3641696
0.43122762 0.34022644 0.36374995
-0.0024428908 0.37250057 0.36293244
0.012436217 0.36314946 0.36234111
0.030123454 0.35462448 0.36429554
0.06317056 0.36100304 0.37244189
0.088300869 0.35955894 0.3692106
0.11145256 0.35850337 0.36969286
0.13676973 0.35972923 0.36834127
0.16316082 0.36096141 0.37188488
0.187886 0.36063281 0.37220713
0.21171169 0.36105606 0.3717756
0.23832534 0.3621434 0.37306544
0.26278013 0.36050516 0.36976573
0.28976858 0.3626405 0.37193146
0.3120808 0.36129767 0.37133235
0.33530161 0.35971114 0.37184829
0.3606495 0.36111304 0.3725262
0.38571391 0.36043632 0.37252513
0.4141511 0.36285093 0.37030864
0.4419181 0.35830605 0.36181533
0.45681435 0.36895511 0.36248693
-0.003575966 0.37967017 0.36179197
0.01221907 0.38051197 0.36217254
0.037309993 0.3800894 0.36244616
0.062231168 0.38044584 0.36218005
0.087435871 0.38104704 0.36237964
0.11261956 0.38103309 0.3622762
0.13765769 0.38108245 0.36244574
0.16278547 0.38101509 0.36268935
0.18747878 0.38128024 0.36226308
0.21217403 0.38120908 0.36238521
0.23757289 0.38137227 0.36195058
0.26229021 0.38136873 0.36242452
0.28753024 0.38139296 0.36230496
0.31273329 0.38143173 0.36227977
0.33777183 0.38143751 0.3623457
0.36270666 0.38158539 0.36237484
0.38741127 0.3816472 0.36179909
0.41258553 0.38162789 0.36252961
0.43711874 0.38176009 0.36234358
0.45999616 0.3806828 0.36214122
-0.0026863643 0.021190723 0.38728458
0.012963997 0.020316677 0.38692573
0.0355822 0.018144412 0.38360971
0.062982701 0.014824266 0.379379
0.087976895 0.014580503 0.37922725
0.11253365 0.014205369 0.37925512
0.13769455 0.014535272 0.37958968
0.16253613 0.014184209 0.3792879
0.18714055 0.014404488 0.379123
0.21354368 0.014809567 0.37977719
0.23820767 0.014409279 0.3794581
0.26240924 0.014461657 0.37963328
0.28729156 0.013948365 0.37935978
0.31285641 0.014164742 0.3792052
0.33785963 0.015129562 0.37961999
0.36250439 0.014523307 0.37938058
0.38696519 0.014390316 0.3794575
0.41325337 0.015391692 0.38082451
0.43864927 0.020499919 0.38622224
0.4594357 0.021308431 0.38744554
-0.0015186268 0.028015222 0.3882392
0.012682371 0.037130818 0.38680008
0.034883343 0.03864827 0.38639259
0.062778205 0.038669314 0.3803218
0.087885596 0.038187444 0.3800559
0.11276165 0.037642546 0.38003123
0.13788874 0.037840307 0.38036993
0.16261989 0.037704088 0.38001198
0.18687588 0.038001906 0.38023186
0.21334828 0.037991166 0.38052765
0.23740777 0.037763819 0.3801764
0.2624945 0.03717963 0.38024893
0.28773788 0.037052065 0.38012266
0.31232601 0.037644621 0.38023621
0.33773565 0.037984446 0.3801969
0.3619014 0.037826188 0.38017103
0.38668436 0.037897099 0.38029373
0.41584128 0.03759867 0.38374642
0.43956849 0.041498877 0.38687673
0.45790562 0.033051547 0.38769937
0.022148384 0.053170774 0.38871923
0.035800532 0.057474323 0.3853302
0.063701935 0.063608445 0.3803297
0.087792918 0.062591881 0.37983531
0.11214366 0.062480636 0.38000369
0.13714077 0.062733665 0.38050923
0.16207388 0.063155249 0.38018882
0.18706137 0.062573217 0.37984067
0.21343178 0.06314677 0.38037822
0.23749931 0.062822774 0.38021526
0.26236409 0.062039644 0.38008323
0.28773248 0.062419191 0.3801561
0.3125591 0.062703222 0.38038731
0.33698988 0.062692724 0.3800506
0.36133003 0.062807858 0.38037473
0.38765863 0.063601211 0.38010901
0.41429934 0.061120808 0.38121787
0.43311638 0.056110386 0.38640001
0.042243086 0.087455593 0.37999284
0.062660471 0.08769948 0.38033724
0.087720752 0.087383918 0.37979928
0.11275404 0.087839097 0.38006213
0.13691381 0.087382406 0.38018885
0.16196769 0.088198036 0.38002402
0.18767902 0.087538868 0.3800531
0.21391317 0.08803381 0.38035512
0.23731102 0.088122711 0.3802461
0.26214767 0.087328404 0.38022608
0.28799433 0.08800891 0.38013268
0.31314674 0.087357983 0.38021746
0.33704484 0.08787097 0.37999415
0.36144 0.087676719 0.38021186
0.38768551 0.088043109 0.38015586
0.41251597 0.087775625 0.37999445
0.42811638 0.087585017 0.37743801
0.041758958 0.11227279 0.37963179
0.062523231 0.11240926 0.3806594
0.088192262 0.11212674 0.38017738
0.11316696 0.11284912 0.38028598
0.13799369 0.11312276 0.3802613
0.16284212 0.11223952 0.38029599
0.18714023 0.1125614 0.38009763
0.2132906 0.11261346 0.38043615
0.23749544 0.1128836 0.38021126
0.26256201 0.11246873 0.38021132
0.28797856 0.11312031 0.38024345
0.31353062 0.11281689 0.38012967
0.33742669 0.11303265 0.38019934
0.36154222 0.11197589 0.38026696
0.3882927 0.11281453 0.38024458
0.41288564 0.11217272 0.37996206
0.4281874 0.11173358 0.37750098
0.042478289 0.13749002 0.37983656
0.062829897 0.13734138 0.38051125
0.088209018 0.13719368 0.38019076
0.1123181 0.13741791 0.38010916
0.13752867 0.13798316 0.38011414
0.16281173 0.13719474 0.38037047
0.18704675 0.13748625 0.38007808
0.21387964 0.13712707 0.38049442
0.23807438 0.13673741 0.38033518
0.26276609 0.13704391 0.38010153
0.28784546 0.13760494 0.38024873
0.31323534 0.13804147 0.38023999
0.33757457 0.13774139 0.38032612
0.36179641 0.13738504 0.3803257
0.38750994 0.13736138 0.38030121
0.41293025 0.13760215 0.37999782
0.42818275 0.1374494 0.37801486
0.042020869 0.16271624 0.3797144
0.062574945 0.16260467 0.38058713
0.087689742 0.16210505 0.38028178
0.11276172 0.16264175 0.38006285
0.13792464 0.16288489 0.38028508
0.16262333 0.16276892 0.38022044
0.18751286 0.16302794 0.3796674
0.21401511 0.16273856 0.38069111
0.23837486 0.16243479 0.38008356
0.26254717 0.16280481 0.38013652
0.28802362 0.1628105 0.38017091
0.31342494 0.16265847 0.38002566
0.33727923 0.16261126 0.38006562
0.36230955 0.16285911 0.38043076
0.38852262 0.16281454 0.38028276
0.41282564 0.16308922 0.38002175
0.42798266 0.16259363 0.37776196
0.04175828 0.18829794 0.37969011
0.062931284 0.18787092 0.38076204
0.088113531 0.18747887 0.38028914
0.11288811 0.18762556 0.38002449
0.13846904 0.18689126 0.38026011
0.16276866 0.18726474 0.3802231
0.18740958 0.18850659 0.38000655
0.21447478 0.18761328 0.38067588
0.23825473 0.18779995 0.38025248
0.26245391 0.18876311 0.38028541
0.28846568 0.18801413 0.38019681
0.31426767 0.18748294 0.38006318
0.33751902 0.18777822 0.38022286
0.36199075 0.18790142 0.38038954
0.387106 0.18815917 0.38004965
0.41231531 0.18834987 0.37997597
0.42743954 0.18640085 0.37831497
0.043246362 0.21291803 0.37929243
0.063112281 0.21197222 0.38088816
0.087283365 0.21223758 0.38019904
0.11282975 0.21210177 0.38005129
0.13816398 0.21167129 0.38031554
0.16251421 0.21174166 0.38027209
0.18782118 0.21226297 0.37982288
0.21482697 0.21188571 0.38053283
0.23843588 0.21184079 0.38033137
0.26264909 0.21257529 0.38023144
0.28854522 0.21263675 0.3802
0.31429082 0.2124265 0.38005692
0.33758816 0.21217889 0.38017032
0.36233959 0.21278925 0.38022846
0.38818023 0.21266909 0.3803831
0.41299656 0.21261485 0.38005164
0.42708629 0.21174312 0.37795767
0.04335586 0.23813763 0.37950358
0.063827284 0.2375437 0.38063428
0.087473035 0.23788187 0.38011286
0.11310069 0.23774712 0.38004684
0.13873233 0.23806173 0.38023254
0.16247617 0.2381013 0.38047752
0.1881173 0.23762217 0.37956738
0.21541291 0.23801526 0.38041541
0.23833339 0.23782958 0.37970337
0.26289299 0.23727596 0.37990215
0.28913242 0.23796824 0.38014573
0.31465477 0.23790422 0.37999207
0.33822656 0.23717071 0.38036579
0.36251193 0.23794393 0.38001838
0.38833579 0.23832762 0.38028738
0.41244403 0.23787437 0.38010633
0.42754242 0.23737913 0.37724864
0.042424247 0.26357907 0.37935799
0.063293166 0.26333684 0.3806673
0.087930918 0.26325276 0.38016167
0.11275994 0.26348755 0.38026431
0.13829312 0.26363516 0.3804554
0.16239829 0.26322675 0.38029596
0.18780252 0.26343721 0.37980309
0.21497826 0.26418656 0.38063896
0.23824681 0.26350093 0.3799842
0.26228091 0.26324695 0.38019019
0.28799227 0.26319501 0.38020366
0.31440362 0.26303843 0.38001668
0.33786476 0.26325285 0.38021284
0.36212373 0.26321477 0.38036874
0.38842452 0.26345354 0.38069665
0.41325894 0.26307362 0.38002607
0.42751643 0.26172495 0.37713906
0.041936904 0.28694814 0.37949777
0.062928118 0.2879658 0.38079593
0.087720111 0.28747767 0.38004878
0.1120833 0.28760719 0.3800399
0.13726559 0.28819683 0.38024485
0.16197395 0.28736931 0.38038623
0.18800062 0.2870239 0.37986386
0.2150307 0.28811902 0.38076514
0.23824188 0.28777853 0.37988418
0.26196778 0.28745279 0.38026837
0.28779081 0.28764436 0.38060832
0.31395778 0.28830409 0.38025597
0.33804509 0.28789109 0.38028431
0.36203921 0.28718901 0.38049576
0.38834685 0.28758845 0.38080919
0.41375044 0.28725836 0.38005015
0.42777827 0.28779268 0.37668321
0.041537505 0.31182671 0.37976167
0.062590867 0.31244487 0.38055694
0.087359942 0.31192723 0.38005379
0.11200118 0.31220868 0.38017425
0.13684349 0.31251806 0.38014218
0.16186912 0.31224769 0.38022032
0.18807289 0.31142318 0.37972596
0.21526101 0.31251329 0.38056484
0.23830228 0.31222221 0.37998438
0.26220971 0.31207648 0.38026467
0.28782821 0.31191579 0.38025737
0.31361356 0.31281021 0.38025397
0.33742046 0.31199434 0.38003778
0.36196125 0.31210676 0.38040683
0.38797545 0.31264713 0.38041437
0.41334528 0.31217647 0.38020885
0.42731065 0.31306079 0.37711397
0.021737413 0.34625989 0.38965622
0.035531171 0.34188843 0.38430423
0.062896475 0.33728597 0.3805719
0.087475635 0.3369315 0.38031885
0.11172532 0.33683178 0.38032418
0.13622464 0.33706638 0.38049728
0.16176485 0.33752871 0.38039702
0.18802498 0.33681932 0.37994376
0.21512964 0.33789784 0.38070956
0.23797055 0.3375667 0.37977698
0.26186138 0.33745256 0.38027316
0.2879743 0.33687407 0.38038611
0.3137126 0.33702514 0.38025108
0.33789414 0.33671281 0.37990946
0.36207604 0.33708575 0.38054571
0.3882018 0.3374576 0.38031411
0.41412452 0.33741674 0.3812663
0.43444645 0.34513637 0.38587242
-0.0025959027 0.37065279 0.38934168
0.011432327 0.36242509 0.38764277
0.037692256 0.36558852 0.38836488
0.062207006 0.3673149 0.38727546
0.087048829 0.36544481 0.38594866
0.11156518 0.36547878 0.38636369
0.13631737 0.36536816 0.38623393
0.16220373 0.3657431 0.38608566
0.1878769 0.3652108 0.38604763
0.21358603 0.36569399 0.38616675
0.23723386 0.36613926 0.3865684
0.26240566 0.36570236 0.38651448
0.28735548 0.36549363 0.38595557
0.31242767 0.36583683 0.38598791
0.33787441 0.36560443 0.38624248
0.36298567 0.36573499 0.38625169
0.38809374 0.36690611 0.3864238
0.41449597 0.36482614 0.38651434
0.44219899 0.35812253 0.38740715
0.45797801 0.36740273 0.38807973
-0.0040628253 0.37743735 0.38643754
0.012778876 0.37791073 0.38585699
0.035488181 0.37731153 0.3859973
0.063440785 0.37764564 0.385472
0.087444343 0.37818092 0.38648465
0.11248472 0.37822208 0.38711637
0.13757773 0.37837511 0.38687861
0.16247377 0.37851033 0.38698825
0.18726651 0.37848115 0.38700187
0.21258225 0.37856001 0.38626713
0.23670009 0.37868041 0.38751072
0.26202506 0.3785989 0.38664168
0.28754058 0.37872878 0.387077
0.31241736 0.3787826 0.38723019
0.33761618 0.37881723 0.38674369
0.36249122 0.37882724 0.38717005
0.38716415 0.37881991 0.38645649
0.41170979 0.37885681 0.38675722
0.43797469 0.37871584 0.38673672
0.45913124 0.37839583 0.38630152
-0.0027897125 0.021422371 0.41177553
0.012956185 0.021169703 0.41259789
0.031639658 0.021432765 0.41230944
0.42340466 0.021652281 0.41124162
0.43945578 0.021710766 0.41256052
0.45884287 0.021914467 0.41205397
-0.0023889779 0.027352508 0.41172358
0.012569475 0.038064953 0.41242781
0.032980043 0.038467601 0.41270959
0.42251125 0.03681979 0.4122788
0.43881312 0.041514099 0.41254923
0.45823476 0.033433896 0.41256097
0.022715459 0.054041304 0.41078329
0.032236185 0.054831237 0.413434
0.42271322 0.05487207 0.41319573
0.43430102 0.054649141 0.41249844
0.020518756 0.34539583 0.41451019
0.030669225 0.34331453 0.41251615
0.42167637 0.344511 0.41346684
0.43732879 0.34526029 0.41318041
-0.0031437089 0.3701933 0.41352224
0.011454762 0.36550912 0.41332051
0.037670784 0.36871725 0.41317713
0.061929375 0.37040746 0.41317457
0.086383566 0.36969998 0.41373065
0.11154242 0.36888623 0.41440782
0.13682052 0.36895952 0.41396359
0.16214944 0.36896163 0.41345236
0.18765682 0.36893386 0.41358525
0.21297781 0.36909193 0.41406548
0.23752236 0.3689321 0.41370925
0.26221403 0.3692193 0.41426712
0.28779668 0.36913496 0.41368082
0.3129909 0.36860737 0.41284096
0.33837485 0.36839336 0.41388732
0.36358911 0.36886775 0.41391709
0.38815627 0.36967778 0.41431895
0.41423234 0.36776501 0.41404673
0.44037381 0.36470452 0.41430348
0.45825547 0.36717787 0.41335049
-0.0047250567 0.37648588 0.40724391
0.012058879 0.37639809 0.40792
0.033430696 0.37606201 0.40873921
0.065093592 0.37595573 0.40968934
0.088443339 0.37664983 0.41075781
0.11258644 0.37680742 0.41122884
0.1376791 0.37708777 0.41176477
0.16304356 0.37772989 0.41240478
0.18734793 0.3777304 0.41194504
0.21233512 0.37776932 0.41267732
0.23791644 0.37779963 0.41279152
0.26246101 0.37783644 0.4125244
0.28807417 0.37801981 0.41201207
0.31194392 0.37758058 0.41276056
0.33692008 0.37714249 0.41197392
0.36186451 0.37710562 0.41144806
0.38721177 0.37670889 0.41114965
0.41150194 0.37673768 0.41024923
0.43728739 0.37648237 0.40985975
0.45890844 0.37654719 0.40949735
-0.0033747156 0.022192838 0.43752533
0.012317673 0.022131788 0.43767729
0.031547569 0.022204522 0.4381009
0.42330134 0.022836788 0.43838704
0.43917689 0.02261319 0.43742996
0.45812458 0.022800261 0.43715128
-0.0019287075 0.028108366 0.43807399
0.011740726 0.037943866 0.43767264
0.033516604 0.038040619 0.43778309
0.42270818 0.037922487 0.43689719
0.43876496 0.040663127 0.43702951
0.4583292 0.033901256 0.43813869
0.022402547 0.053320356 0.43701634
0.032102954 0.055649184 0.43740636
0.42275268 0.056512669 0.43727282
0.43487597 0.055134505 0.4375315
0.43239075 0.15937287 0.44986266
0.43557456 0.18670541 0.44969618
0.031443119 0.21735996 0.44999245
0.029773921 0.31487584 0.44942519
0.018890239 0.3443189 0.43828487
0.030529087 0.340855 0.43867519
0.42195433 0.34191206 0.43897659
0.43894342 0.34371102 0.43791711
0.45185104 0.34872493 0.43724149
-0.0030828577 0.36845282 0.43786103
0.011113191 0.36537451 0.43750274
0.037066977 0.36725959 0.43764496
0.062634282 0.36854056 0.43727991
0.087475322 0.3693904 0.4383516
0.11189279 0.36880085 0.43870878
0.13633303 0.36884093 0.4386206
0.16251948 0.36893818 0.43852055
0.18757376 0.3688674 0.43831557
0.21224864 0.3689656 0.43867317
0.23680146 0.36887276 0.43776339
0.26176855 0.36910748 0.43884885
0.28719234 0.36876351 0.43822676
0.31305009 0.36794654 0.43811682
0.33768979 0.36868891 0.4388369
0.36315224 0.36925435 0.43870521
0.38773167 0.36941233 0.43854788
0.41292778 0.36816013 0.43775591
0.43876517 0.36814541 0.43809402
0.45859644 0.36662421 0.4376027
0.014692684 0.37549928 0.42898849
0.036115989 0.37551147 0.43009812
0.068827242 0.37568864 0.43264836
0.091390282 0.37578502 0.4324494
0.11508575 0.37608701 0.43379116
0.13934627 0.37627259 0.43705869
0.16312227 0.37720466 0.43679461
0.18702927 0.37783626 0.43738505
0.21270372 0.37786624 0.43726447
0.23702589 0.37801355 0.43737906
0.26263607 0.37786356 0.43727386
0.28711385 0.37787122 0.43712416
0.31125832 0.37693968 0.43713126
0.33683079 0.37636465 0.43602705
0.36061034 0.37600136 0.43331885
0.38740841 0.37562934 0.43178615
0.40773061 0.37564567 0.42842358
0.44505143 0.375085 0.42738867
0.45462847 0.37552443 0.42824438
-0.0026481941 0.022475 0.46138617
0.013312235 0.022755438 0.46248394
0.030799471 0.022941846 0.46181801
0.42391047 0.023540245 0.4625338
0.43890631 0.023221573 0.46201333
0.45799255 0.023264969 0.46199626
-0.0027068923 0.028232712 0.46516812
0.011411817 0.037508719 0.4629941
0.034205079 0.03783831 0.463431
0.42269221 0.038019493 0.46170703
0.43800354 0.038862567 0.4630028
0.45856449 0.033477996 0.46304727
0.016903643 0.062232502 0.46701887
0.031756405 0.061640322 0.46100429
0.42264622 0.062325731 0.46320176
0.43633062 0.060657844 0.46383011
0.45146644 0.061108526 0.47101039
0.016349772 0.087971598 0.46826217
0.032146301 0.087795511 0.46142772
0.42249501 0.087641962 0.46536982
0.43725485 0.087266885 0.46647388
0.45192671 0.087740839 0.47204331
0.016288355 0.11292783 0.46823898
0.031398587 0.11270896 0.46143049
0.42256358 0.11230843 0.46574041
0.43750256 0.11262935 0.46668786
0.45445484 0.11028764 0.47280216
0.016669128 0.13792889 0.46763781
0.031442374 0.13756071 0.46191505
0.42256594 0.13775295 0.46583554
0.43651295 0.13750184 0.46659645
0.45347774 0.13647145 0.47283265
0.01668621 0.16266969 0.467958
0.031544026 0.16260916 0.46121168
0.42246953 0.16237371 0.46452993
0.4373053 0.16226088 0.46690038
0.45284179 0.16262576 0.47240502
0.016780818 0.18710096 0.46760294
0.031591456 0.18744396 0.46110043
0.42227814 0.18694669 0.4645336
0.43750277 0.18745425 0.46710786
0.45276096 0.18862592 0.47244766
0.016685581 0.21241899 0.46729168
0.030773038 0.21203345 0.46193513
0.42213741 0.2112391 0.46562061
0.43743959 0.2123574 0.46699229
0.45316374 0.21203738 0.47294825
0.016204849 0.23799002 0.46758005
0.030684633 0.23747815 0.46200618
0.42216435 0.23757322 0.46497437
0.43737239 0.23739144 0.46660128
0.45447853 0.23418924 0.47295165
0.01677385 0.26281497 0.46776745
0.030745681 0.26265407 0.46169007
0.42215398 0.26315907 0.46524066
0.43803218 0.26237997 0.46746799
0.45352045 0.25935069 0.47088477
0.016777974 0.2874217 0.46740738
0.031142114 0.28750464 0.46035379
0.42217165 0.28812009 0.46439368
0.43797842 0.28725591 0.4673709
0.45147651 0.2853291 0.47171143
0.017271949 0.31209028 0.46699703
0.03112454 0.3121098 0.46076646
0.42213354 0.31293908 0.46431321
0.43853173 0.31204727 0.46796203
0.45247728 0.31127962 0.47153717
0.016178336 0.3391766 0.46482375
0.030788101 0.33619142 0.46032479
0.42189354 0.33723101 0.46427777
0.43987784 0.33917704 0.46349335
0.45279771 0.34336591 0.46637923
-0.0035208252 0.3649269 0.46152446
0.010566932 0.36376137 0.46253458
0.037218675 0.36510342 0.46281096
0.062630475 0.36720219 0.46249551
0.087280303 0.36858988 0.46304828
0.11142243 0.36836097 0.46209952
0.13659622 0.36714879 0.46255845
0.16294773 0.36905381 0.46295184
0.18780862 0.37061301 0.46159658
0.21247196 0.3708384 0.46130887
0.23722583 0.3708204 0.46155107
0.26278636 0.37084755 0.46164745
0.28837609 0.36936358 0.46238703
0.31254786 0.3671993 0.46261179
0.33798701 0.36751735 0.46220371
0.36322525 0.36888897 0.4623017
0.38815188 0.36808151 0.46260309
0.41298991 0.36583725 0.46285602
0.43785182 0.36699313 0.46277884
0.45890093 0.36424473 0.46231338
0.094303414 0.37575409 0.47081512
0.1150409 0.37642774 0.46729428
0.13846168 0.37757739 0.46366334
0.16271235 0.37970579 0.46361068
0.18722321 0.38056773 0.46375448
0.21210864 0.38062888 0.46338123
0.23755203 0.3807463 0.46342719
0.26238239 0.38064179 0.46343529
0.28761002 0.38028851 0.46335194
0.31236908 0.37886715 0.46402568
0.33570692 0.37689403 0.46449372
0.35884681 0.37620404 0.46696874
0.3808488 0.37534636 0.4638404
-0.0035094181 0.023342108 0.4858515
0.012910356 0.023446906 0.48545143
0.031246262 0.023445699 0.48365873
0.42375222 0.023783401 0.49153301
0.43936205 0.023678061 0.486256
0.45829743 0.023818001 0.48567596
-0.0028257114 0.036344655 0.49009004
0.01035326 0.03694744 0.48926854
0.032976747 0.03672006 0.48907945
0.42275119 0.037557505 0.48544195
0.43664289 0.034981504 0.48980939
0.4600901 0.036040317 0.48831427
-0.0027325624 0.062571481 0.49145606
0.0098092556 0.062880725 0.48938856
0.033010624 0.062533185 0.48862001
0.42298463 0.062478289 0.48652765
0.43696982 0.062247235 0.48851734
0.45997325 0.063077129 0.48952496
-0.0031128533 0.087609634 0.49097642
0.010041012 0.087666482 0.48984364
0.032410484 0.087392159 0.48840469
0.42261356 0.087640345 0.48735243
0.43777618 0.087590054 0.4887245
0.4598186 0.088070206 0.48940036
-0.0031517593 0.11313267 0.49098027
0.010067835 0.1127568 0.48950839
0.032448467 0.11245426 0.48901099
0.42261085 0.1125667 0.48766035
0.43781048 0.1127549 0.48857969
0.45949936 0.11277594 0.48916724
-0.0031269118 0.13785598 0.49086708
0.010046264 0.13776915 0.48967826
0.032111492 0.13761944 0.48888534
0.42253304 0.13815862 0.48667961
0.43813357 0.13724145 0.48877135
0.45937529 0.13690123 0.48943633
-0.0032026505 0.16235079 0.49064797
0.010135812 0.16255613 0.48949811
0.03164424 0.16226691 0.48897296
0.42248416 0.1628363 0.48611534
0.43843862 0.16272575 0.48926464
0.4596847 0.16249338 0.48931977
-0.0034046888 0.18722712 0.49092919
0.010397307 0.18710494 0.48939553
0.03156653 0.1876118 0.48899242
0.4224987 0.18802461 0.4875606
0.43834072 0.18756782 0.48957795
0.45956975 0.18745081 0.48960462
-0.0033084992 0.21246783 0.49118125
0.010366067 0.21227135 0.48946211
0.032225687 0.21226752 0.48902071
0.42232728 0.21264851 0.48604879
0.4386611 0.2116563 0.48894158
0.45940849 0.212181 0.48968399
-0.0034955651 0.23800179 0.49060768
0.010092561 0.23766078 0.48910189
0.031425808 0.23749031 0.48942113
0.42234641 0.23758912 0.48687732
0.4382388 0.2371234 0.48912242
0.45894703 0.23787351 0.48913005
-0.0031950045 0.26279363 0.49105069
0.0097293817 0.26240143 0.48921019
0.031204719 0.26251245 0.48952186
0.42239738 0.26293769 0.48733616
0.43911657 0.26300696 0.48903677
0.45913374 0.2626639 0.48902705
-0.0030711228 0.28766918 0.49108496
0.0094983643 0.28675663 0.48891771
0.031353243 0.28803825 0.48934093
0.42208514 0.28769615 0.48677376
0.43828335 0.28764531 0.49019587
0.45926684 0.28710321 0.48937401
-0.0031921032 0.3119286 0.49038923
0.0093606664 0.31224841 0.48882654
0.031224811 0.31284255 0.48919138
0.42207262 0.31225643 0.48678151
0.44039521 0.31208226 0.48861456
0.45958593 0.31262571 0.48954943
-0.0033244451 0.33599606 0.48964587
0.0096086748 0.33686009 0.48865882
0.031583391 0.33685935 0.48844585
0.42214823 0.33661613 0.48656833
0.43944076 0.33796981 0.48889387
0.4589352 0.33743897 0.49003187
-0.0032830259 0.36023968 0.48846218
0.011413024 0.36171052 0.48817661
0.037751682 0.36297083 0.48773631
0.062287819 0.36765829 0.48704046
0.086600587 0.3697795 0.48750669
0.11169916 0.37055522 0.48776013
0.13622206 0.37065712 0.48637405
0.16067316 0.37201378 0.4839218
0.18585302 0.37324026 0.48287955
0.2113122 0.37362233 0.48027158
0.23647177 0.37346584 0.48016188
0.26071864 0.37341532 0.48134199
0.28988031 0.37249914 0.48255223
0.3133527 0.37109941 0.48613635
0.33801475 0.37019122 0.48767036
0.36396533 0.36962715 0.48686266
0.38791636 0.3690761 0.48736149
0.41226456 0.36537233 0.48735869
0.43759403 0.36344072 0.48838785
0.45970455 0.36129647 0.48766229
0.093712002 0.37614271 0.48960426
0.11345576 0.37803394 0.48837572
0.13801163 0.38052526 0.4888849
0.16266766 0.38320902 0.48891249
0.18751103 0.38396698 0.48801857
0.21262746 0.38408607 0.48804846
0.23721583 0.38413161 0.48767322
0.26234153 0.38416481 0.48792684
0.28710517 0.38396481 0.48862338
0.31224522 0.38219523 0.48856199
0.33746019 0.37927926 0.48798102
0.36055258 0.37733167 0.48884121
0.38301945 0.37602422 0.49239692
-0.0016715452 0.022069693 0.50164342
0.015398049 0.023024373 0.50209576
0.033459324 0.023290912 0.50085038
0.4410468 0.023570945 0.5025844
0.45800653 0.023741029 0.50272322
-0.0030467936 0.036469627 0.50302726
0.012950029 0.037175339 0.50323671
0.032009844 0.038694922 0.50300467
0.42339981 0.036257282 0.50199258
0.43794394 0.037533142 0.50311106
0.4595657 0.037511095 0.50275445
-0.0038017279 0.063621312 0.50244004
0.011536383 0.06280002 0.50334793
0.031698097 0.06188108 0.50302082
0.42383933 0.065842733 0.5019663
0.43822736 0.062439531 0.50295818
0.45859715 0.062389415 0.50275517
-0.0041084583 0.087362148 0.50279349
0.011777961 0.087760717 0.50330895
0.03201488 0.08682286 0.50311565
0.42379045 0.086822979 0.50286734
0.43764576 0.087762691 0.50299031
0.45837864 0.087266877 0.5029915
-0.0039401124 0.11157297 0.50280505
0.01273301 0.11266138 0.50320303
0.032663647 0.11168528 0.50374597
0.42405212 0.11527624 0.50258476
0.43740353 0.11243252 0.5029642
0.4580473 0.11263572 0.50289237
-0.0031347892 0.13628978 0.50262475
0.012620934 0.13732973 0.50294572
0.032013435 0.1384688 0.50412691
0.42387125 0.1384386 0.50122654
0.43800583 0.13799757 0.50303614
0.4591051 0.13759767 0.50283438
-0.0038323945 0.16103104 0.50247139
0.012005958 0.16276722 0.50322843
0.031555023 0.1646177 0.50460553
0.42393965 0.16368824 0.50130045
0.43856809 0.16245557 0.50307769
0.45923331 0.16207285 0.50288343
-0.0027549053 0.18569537 0.50276828
0.012453619 0.1880812 0.5034306
0.030072855 0.18693286 0.5041979
0.42421395 0.1866193 0.50146157
0.43870458 0.18700059 0.50320727
0.45920399 0.18794875 0.5026812
-0.0020339142 0.21426189 0.50220364
0.013504654 0.21202329 0.50365055
0.031665016 0.2124386 0.50287461
0.42327544 0.21049054 0.50220799
0.43858314 0.21220446 0.50315058
0.45945939 0.21298686 0.5027867
-0.0028941771 0.23690128 0.50201422
0.0130614 0.23781794 0.50353068
0.031726498 0.23791927 0.50306243
0.42353639 0.23711865 0.50177258
0.4383567 0.23772441 0.50307608
0.46055502 0.23815551 0.50303084
-0.0038663533 0.26133233 0.50177008
0.01253557 0.26333335 0.50340146
0.032813743 0.26242864 0.50446391
0.42355517 0.26361614 0.50178736
0.43836296 0.26293939 0.50309789
0.45950708 0.26259863 0.50273705
-0.0028758103 0.28671005 0.50334483
0.013028419 0.2876977 0.50324625
0.032968134 0.28879359 0.5047909
0.42342749 0.28740656 0.50219101
0.43825823 0.28766665 0.50304711
0.45907679 0.28759643 0.50288779
-0.0032708948 0.31398681 0.50282234
0.012494017 0.31203452 0.50339293
0.030515729 0.31312194 0.50433707
0.42395601 0.31104624 0.50189292
0.43848079 0.31239706 0.50307661
0.45896471 0.31255865 0.50299585
-0.0035402763 0.33540982 0.5054003
0.012151424 0.33463043 0.50398469
0.030755594 0.33416066 0.50411791
0.4236103 0.33113068 0.50157672
0.43842715 0.33267397 0.50290674
0.45944583 0.33390215 0.50277251
-0.0033556002 0.3575165 0.51222885
0.011877927 0.35813284 0.51266164
0.037374932 0.36036527 0.51277548
0.062706545 0.36697561 0.51236397
0.086150177 0.3707723 0.51216948
0.10964558 0.37245667 0.50995183
0.13650487 0.3732231 0.50637382
0.16188745 0.37441006 0.50463021
0.29050475 0.37422785 0.50404423
0.31535971 0.37300089 0.5051071
0.34040824 0.3732329 0.50924164
0.3642351 0.37111405 0.51151812
0.38859889 0.3689709 0.51221663
0.41246575 0.36304975 0.51241577
0.43739823 0.35963401 0.51255995
0.45931551 0.35982111 0.51260448
0.090991415 0.37734893 0.51468074
0.11310937 0.37959307 0.51355219
0.13761307 0.38304204 0.51353222
0.16289531 0.3865934 0.51289809
0.18718874 0.3899228 0.5124172
0.21216957 0.39069086 0.51192939
0.23772147 0.39070526 0.51187158
0.26247522 0.39008909 0.51193529
0.28748927 0.38849106 0.5126394
0.31238851 0.38469112 0.51273918
0.33694148 0.38115403 0.51363176
0.36102626 0.37855825 0.51374924
0.38129717 0.37663075 0.51471806
0.19100991 0.4010745 0.52138323
0.21186282 0.40208539 0.52132064
0.23505159 0.40179881 0.52033174
0.25993985 0.40208396 0.52089483
0.28092283 0.40073118 0.52086246
-0.0042247525 0.34897935 0.53952301
0.010986881 0.34918299 0.54003102
0.031523395 0.3496027 0.53601623
0.41905805 0.34932828 0.5341469
0.43937489 0.34929287 0.53820109
0.45796052 0.34928644 0.53920645
-0.0030155084 0.35582605 0.53723419
0.01269168 0.35729587 0.5375194
0.038010366 0.36090961 0.5374741
0.06184509 0.36796343 0.53700191
0.082995094 0.37191907 0.53585982
0.10598698 0.37326679 0.53144372
0.34524402 0.3744916 0.53095585
0.36792216 0.37230691 0.53384387
0.39002666 0.3694852 0.53662497
0.41273376 0.36387357 0.537525
0.43780431 0.35868496 0.5374372
0.45904213 0.35765663 0.53725344
0.070097625 0.37650019 0.5425508
0.089861095 0.37998244 0.53860474
0.11275164 0.38510653 0.53759164
0.13744135 0.39030626 0.53772581
0.16138077 0.39344904 0.53585494
0.18673818 0.3947421 0.53517997
0.2122027 0.39537379 0.53417093
0.23780005 0.39589822 0.5332911
0.26290154 0.39509681 0.53436452
0.28829259 0.3940596 0.53567386
0.31264669 0.39175391 0.53674906
0.33728573 0.38738966 0.53758103
0.36197355 0.38215432 0.53831291
0.38344863 0.37834165 0.54001093
0.40318051 0.37636533 0.54124659
0.14420088 0.4008638 0.54583621
0.16651163 0.40260813 0.54258788
0.18875726 0.40437266 0.54031748
0.2129194 0.40576205 0.53966671
0.23750748 0.40594959 0.53971815
0.26170093 0.40509102 0.53943527
0.28538767 0.40348205 0.54088241
0.30832285 0.40223241 0.54415268
-0.00374589 0.34847197 0.56418186
0.0086372066 0.3489157 0.5640499
0.029063663 0.34938884 0.55471265
0.44211265 0.34882581 0.56287408
0.45798063 0.34892836 0.56401718
-0.0034922645 0.35445502 0.56208444
0.013249416 0.35688442 0.56233144
0.037945934 0.36231354 0.5625124
0.059883475 0.3696661 0.56196642
0.080792375 0.37240604 0.56039804
0.3725177 0.37291986 0.55695611
0.39142361 0.37087634 0.56083894
0.41288069 0.36560217 0.56226349
0.43779704 0.35906494 0.56258667
0.45874086 0.35609096 0.56210887
0.067771196 0.37746942 0.5640713
0.088275358 0.38260189 0.56287849
0.11230236 0.39140037 0.5620591
0.13602608 0.39537323 0.56053805
0.15920931 0.39711362 0.55807108
0.1855946 0.39831799 0.55527937
0.21085536 0.39943826 0.55449319
0.24340625 0.3994607 0.55359048
0.26613161 0.39820668 0.55450326
0.29015407 0.39761248 0.55621904
0.31471515 0.39596736 0.55938572
0.33880782 0.39336923 0.56158072
0.36254311 0.38610291 0.56257302
0.38546899 0.37958181 0.56424201
0.40397149 0.37713727 0.56252736
0.12145828 0.40167186 0.56923383
0.13963409 0.40353546 0.56553656
0.16309629 0.40591115 0.56346571
0.18749712 0.40945879 0.56308752
0.21246649 0.41241944 0.56283325
0.2373752 0.41339496 0.56229562
0.26252404 0.41059473 0.5627076
0.28683546 0.40765962 0.56357735
0.31094375 0.40457901 0.56461447
0.33381775 0.40247542 0.5666725
0.3513338 0.40267864 0.57478225
-0.0031547099 0.34853661 0.58655709
0.0084661702 0.34885418 0.58532381
0.44401568 0.34897813 0.58557564
0.45875791 0.34857616 0.58731174
-0.0028555328 0.35315016 0.58817828
0.012932428 0.35655969 0.5875203
0.037274677 0.36421645 0.5875845
0.057838131 0.37087253 0.58603436
0.077199832 0.37326384 0.58719653
0.37455732 0.37297589 0.57847148
0.39338216 0.37191221 0.58460528
0.41336432 0.36736855 0.58717453
0.43721652 0.35968676 0.58787137
0.45839304 0.35527298 0.58745903
0.047865201 0.37634906 0.59646225
0.066106692 0.379473 0.58894497
0.087451652 0.38736221 0.58764672
0.1099245 0.39494219 0.58609331
0.13265078 0.39759225 0.58160657
0.15342775 0.39950097 0.57747573
0.31785429 0.39834613 0.58034772
0.34095871 0.39600924 0.58435887
0.36304709 0.39087415 0.58767557
0.3861438 0.38243133 0.58843112
0.40635142 0.37783167 0.59053844
0.098962247 0.40066165 0.5995965
0.11674616 0.40346262 0.59069824
0.13769461 0.40737671 0.58797312
0.16242991 0.4126322 0.58797139
0.18717434 0.4168193 0.58747053
0.21243787 0.41939661 0.58663857
0.23767869 0.41984692 0.58603227
0.26254827 0.41783699 0.58675015
0.28784767 0.41428658 0.58753675
0.3124797 0.40957093 0.58801985
0.33545718 0.40533817 0.58931595
0.35665905 0.40205482 0.59106964
0.19241318 0.42597678 0.59700572
0.21549211 0.42699325 0.59333301
0.23659402 0.42718703 0.59246469
0.25881547 0.42682707 0.59382075
0.27991492 0.42535555 0.59652603
-0.0024421066 0.34833187 0.61011481
0.0055657551 0.34890586 0.60385603
0.4606958 0.34916449 0.6085766
-0.0033858912 0.35525042 0.61249679
0.012953068 0.35958362 0.61249828
0.03578838 0.36828122 0.61172432
0.055817485 0.37180567 0.60827619
0.39698935 0.37281829 0.60531777
0.41650227 0.37023008 0.61055535
0.43741888 0.36315197 0.61267716
0.45817605 0.35734877 0.61255157
0.044770982 0.37729335 0.61586452
0.063485779 0.38372386 0.61248994
0.085684255 0.39341503 0.61164558
0.10594663 0.3971543 0.60771263
0.34375584 0.39804631 0.6036818
0.36506143 0.39544767 0.61048728
0.38753667 0.38782355 0.61232018
0.4088302 0.3796249 0.61464345
0.42849112 0.37752903 0.62009454
0.093419343 0.40204856 0.6167531
0.11379375 0.40730715 0.61349756
0.13774373 0.41446874 0.61264455
