# .PCD v0.7 - Point Cloud Data file format
VERSION 0.7
FIELDS x y z normal_x normal_y normal_z curvature
SIZE 4 4 4 4 4 4 4
TYPE F F F F F F F
COUNT 1 1 1 1 1 1 1
WIDTH 804
HEIGHT 1
VIEWPOINT 0 0 0 1 0 0 0
POINTS 804
DATA ascii
12.727899 -12.419099 5.0323796 -0.35523248 0.54819924 -0.7571575 -4.3160211e+08
-11.136911 -12.061581 5.0323796 -0.12172347 -0.75294977 0.64672256 -4.3160211e+08
-4.2852249 -12.061581 5.0323796 0 0 -1 -4.3160208e+08
-2.694237 -12.061582 5.0323796 0 0 1 -4.3160214e+08
2.0787251 -12.061581 5.0323796 0 0 1 -4.3160208e+08
8.4426737 -12.06158 5.0323796 0 0 -1 -4.3160211e+08
10.033662 -12.061582 5.0323796 -0.043751456 0.02676736 -0.99868381 -4.3160214e+08
-0.85938102 -11.882823 5.0323801 0 0 -1 -4.3160208e+08
11.868519 -11.882823 5.0323801 0 0 1 -4.3160208e+08
-5.388474 -11.704062 5.0323801 0 0 -1 -4.3160208e+08
0.97547513 -11.704062 5.0323796 0 0 1 -4.3160214e+08
4.1574507 -11.704061 5.0323796 0 0 -1 -4.3160214e+08
7.3394246 -11.704062 5.0323796 0 0 -1 -4.3160214e+08
-7.7110686 -11.525303 5.0323796 0 0 -1 -4.3160208e+08
5.9923072 -11.525301 5.0323796 0 0 -1 -4.3160214e+08
-12.112388 -11.346544 5.0323801 -0.56914717 -0.77644652 -0.27055898 -4.3160208e+08
-10.033662 -11.346543 5.0323796 0.044369012 -0.068458185 -0.99666691 -4.3160214e+08
-1.718762 -11.346543 5.0323796 nan nan nan -4.3160208e+08
3.0541997 -11.346543 5.0323796 0 0 -1 -4.3160211e+08
11.009139 -11.346543 5.0323796 0.00057799474 0.085614495 -0.99632818 -4.3160214e+08
-14.678849 -10.989024 5.0323796 -0.14747174 -0.96542907 -0.21493913 -4.3160211e+08
-8.6865454 -10.810266 5.0323796 0 0 -1 -4.3160211e+08
-6.3639498 -10.989025 5.0323801 0 0 -1 -4.3160208e+08
-0.37164301 -10.810266 5.0323801 nan nan nan -4.3160208e+08
1.9509507 -10.989027 5.0323796 0 0 1 -4.3160214e+08
5.1329265 -10.989025 5.0323796 0 0 -1 -4.3160211e+08
8.3149004 -10.989025 5.0323796 0 0 -1 -4.3160211e+08
13.331733 -10.810266 5.0323796 0 0 1 -4.3160211e+08
14.678849 -10.989025 5.0323796 -0.25317067 0.35979551 0.8980267 -4.3160211e+08
-13.087861 -10.631507 5.0323796 -0.071091399 -0.43836656 0.89598042 -4.3160214e+08
-11.009139 -10.631507 5.0323796 0 0 -1 -4.3160211e+08
-4.772963 -10.631506 5.0323801 0 0 1 -4.3160208e+08
-3.7335999 -10.631506 5.0323801 nan nan nan -4.3160208e+08
-2.694237 -10.631506 5.0323801 0 0 1 -4.3160208e+08
11.984613 -10.631507 5.0323796 -0.047499686 0.052841242 -0.99747258 -4.3160214e+08
-7.3394251 -10.273988 5.0323801 0 0 -1 -4.3160208e+08
0.97547501 -10.273988 5.0323796 0 0 1 -4.3160211e+08
9.2903757 -10.273988 5.0323796 0 0 1 -4.3160211e+08
10.881363 -10.273988 5.0323796 0 0 -1 -4.3160214e+08
-9.6620197 -10.095228 5.0323801 0 0 -1 -4.3160208e+08
-1.347119 -10.095228 5.0323801 0 0 1 -4.3160208e+08
5.9284191 -10.095228 5.0323801 0 0 1 -4.3160208e+08
6.967782 -10.095228 5.0323801 nan nan nan -4.3160208e+08
-14.063338 -9.9164686 5.0323796 0.095786072 -0.20481822 0.9741019 -4.3160211e+08
-11.984612 -9.9164705 5.0323796 nan nan nan -4.3160211e+08
4.6451879 -9.9164696 5.0323801 nan nan nan -4.3160208e+08
14.551077 -9.9164696 5.0323796 0.12988102 -0.13313906 0.98255026 -4.3160211e+08
-2.9961531 -9.6483307 5.0323801 0 0 1 -4.3160208e+08
2.3225939 -9.73771 5.0323801 nan nan nan -4.3160208e+08
-16.629801 -9.5589514 5.0323796 0.81929296 0.22072384 0.52918816 -4.3160211e+08
0 -9.5589504 5.0323801 0 0 1 -4.3160208e+08
15.633257 -9.4535208 5.0323801 0 0 1 -4.3160208e+08
16.629801 -9.5589514 5.0323796 -0.82998109 0.50070477 0.24581732 -4.3160208e+08
-15.590439 -9.3480911 5.0323801 0.10719558 -0.33362615 0.93659103 -4.3160208e+08
-13.426075 -9.1372328 5.0323801 0 0 1 -4.3160208e+08
-6.0648999 -9.1372328 5.0323796 0 0 -1 -4.3160211e+08
-4.9827189 -9.0318031 5.0323796 0 0 -1 -4.3160208e+08
-3.9861751 -9.1372328 5.0323801 0 0 -1 -4.3160208e+08
3.3321807 -9.0318031 5.0323801 0 0 -1 -4.3160208e+08
10.5649 -9.1372328 5.0323796 0 0 1 -4.3160211e+08
11.647081 -9.0318031 5.0323801 0 0 1 -4.3160208e+08
12.643624 -9.1372328 5.0323796 0 0 1 -4.3160211e+08
-14.636714 -8.9263744 5.0323801 0.57290494 -0.35271198 0.73984742 -4.3160208e+08
-7.9723511 -8.7155151 5.0323801 0 0 -1 -4.3160208e+08
4.5 -8.7155151 5.0323796 0 0 -1 -4.3160211e+08
7.6609054 -8.6100845 5.0323796 0 0 1 -4.3160208e+08
8.6574497 -8.7155151 5.0323801 0 0 1 -4.3160208e+08
-11.432988 -8.5046558 5.0323801 0 0 -1 -4.3160208e+08
-10.307988 -8.5046558 5.0323801 0 0 -1 -4.3160208e+08
-2.6898999 -8.5046558 5.0323801 0 0 1 -4.3160208e+08
-1.650538 -8.5046558 5.0323801 0 0 1 -4.3160208e+08
1.46755 -8.5046558 5.0323801 0 0 1 -4.3160208e+08
6.6643605 -8.5046549 5.0323796 0 0 1 -4.3160214e+08
9.7824497 -8.5046558 5.0323801 0 0 -1 -4.3160208e+08
13.9399 -8.5046558 5.0323801 0 0 -1 -4.3160208e+08
14.979263 -8.5046558 5.0323801 0 0 -1 -4.3160208e+08
-15.975806 -8.3992271 5.0323801 0 0 1 -4.3160208e+08
-12.643625 -8.2937965 5.0323801 nan nan nan -4.3160208e+08
-6.9758072 -8.3992271 5.0323801 nan nan nan -4.3160208e+08
2.59255 -8.2937965 5.0323801 0 0 1 -4.3160208e+08
5.6678195 -8.3992271 5.0323796 0 0 1 -4.3160211e+08
-13.811443 -8.1883678 5.0323801 nan nan nan -4.3160208e+08
-9.3114433 -8.1883678 5.0323801 0 0 -1 -4.3160208e+08
3.71755 -8.0829391 5.0323796 0 0 -1 -4.3160208e+08
-17.314899 -7.8720798 5.0323801 0.65513688 0.26607493 0.70710659 -4.3160208e+08
0.68510002 -7.8720798 5.0323801 0 0 1 -4.3160208e+08
17.314899 -7.8720794 5.0323801 -7.1525551e-07 -1.7285341e-06 -1 -4.3160208e+08
-0.482719 -7.7666512 5.0323801 0 0 1 -4.3160208e+08
4.9281869 -7.661222 5.0323801 0 0 -1 -4.3160208e+08
8.0462751 -7.661222 5.0323801 0 0 -1 -4.3160208e+08
16.318356 -7.7666512 5.0323801 0 0 -1 -4.3160208e+08
-15.236176 -7.4503632 5.0323801 nan nan nan -4.3160208e+08
-6.2361751 -7.4503632 5.0323801 0 0 1 -4.3160208e+08
-3.9861751 -7.4503632 5.0323801 0 0 1 -4.3160208e+08
9.1712751 -7.4503632 5.0323796 0 0 -1 -4.3160208e+08
10.167819 -7.5557923 5.0323801 0 0 -1 -4.3160208e+08
11.25 -7.4503632 5.0323796 0 0 1 -4.3160214e+08
13.328726 -7.4503632 5.0323796 0 0 1 -4.3160211e+08
-16.446812 -7.2395039 5.0323801 nan nan nan -4.3160208e+08
-7.4468122 -7.2395039 5.0323801 nan nan nan -4.3160208e+08
-5.1539941 -7.344934 5.0323801 0 0 1 -4.3160208e+08
1.553187 -7.2395039 5.0323801 0 0 1 -4.3160208e+08
12.332182 -7.3449335 5.0323796 0 0 1 -4.3160211e+08
-8.6574497 -7.028646 5.0323801 0 0 -1 -4.3160208e+08
-12.118088 -6.8177872 5.0323801 0 0 -1 -4.3160208e+08
-10.993088 -6.8177872 5.0323801 0 0 -1 -4.3160208e+08
-3.1180871 -6.8177872 5.0323801 0 0 1 -4.3160208e+08
-1.9930871 -6.8177872 5.0323801 0 0 1 -4.3160208e+08
5.8819132 -6.8177872 5.0323801 nan nan nan -4.3160208e+08
7.0069132 -6.8177872 5.0323801 nan nan nan -4.3160208e+08
14.625 -6.8177872 5.0323801 0 0 1 -4.3160208e+08
15.664362 -6.8177872 5.0323801 -0.0050705131 -0.0014933876 0.99998605 -4.3160208e+08
-13.328725 -6.6069279 5.0323801 0 0 -1 -4.3160208e+08
4.6712751 -6.6069279 5.0323801 nan nan nan -4.3160208e+08
-14.496543 -6.5014982 5.0323801 0 0 -1 -4.3160208e+08
-9.9965439 -6.5014982 5.0323801 0 0 -1 -4.3160208e+08
-0.996544 -6.5014982 5.0323801 0 0 1 -4.3160208e+08
3.5034561 -6.5014982 5.0323801 0 0 1 -4.3160208e+08
8.0034561 -6.5014982 5.0323801 nan nan nan -4.3160208e+08
16.83218 -6.5014982 5.0323801 0.0092929695 -0.034312055 0.99936801 -4.3160208e+08
-16.83218 -6.2906399 5.0323801 -0.91084641 -0.41274527 0.00039087838 -4.3160208e+08
-15.664362 -6.396069 5.0323801 0 0 -1 -4.3160208e+08
-7.832181 -6.2906399 5.0323801 nan nan nan -4.3160208e+08
-6.664362 -6.396069 5.0323801 0 0 1 -4.3160208e+08
-5.539362 -6.396069 5.0323801 0 0 1 -4.3160208e+08
1.167819 -6.2906399 5.0323801 0 0 1 -4.3160208e+08
2.335638 -6.396069 5.0323801 0 0 1 -4.3160208e+08
10.167819 -6.2906399 5.0323801 0 0 1 -4.3160208e+08
11.335638 -6.396069 5.0323801 0 0 1 -4.3160208e+08
-18 -6.1852102 5.0323801 0.73423648 0.077998117 0.6743983 -4.3160208e+08
-4.5 -6.1852102 5.0323801 0 0 1 -4.3160208e+08
0 -6.1852102 5.0323801 0 0 1 -4.3160208e+08
9 -6.1852102 5.0323801 nan nan nan -4.3160208e+08
13.5 -6.1852102 5.0323801 0 0 1 -4.3160208e+08
18 -6.1852102 5.0323801 0.70672238 -0.13138236 0.69518495 -4.3160208e+08
-14.625 -5.445085 5.0323801 0 0 -1 -4.3160208e+08
-10.125 -5.445085 5.0323801 0 0 -1 -4.3160208e+08
-1.125 -5.445085 5.0323801 0 0 1 -4.3160208e+08
3.375 -5.445085 5.0323801 0 0 1 -4.3160208e+08
7.875 -5.445085 5.0323801 nan nan nan -4.3160208e+08
12.375 -5.445085 5.0323801 0 0 1 -4.3160208e+08
15.75 -5.445085 5.0323801 -0.0524127 -0.017922193 0.99846464 -4.3160208e+08
-17.566999 -4.6688199 5.13238 0.75111109 -0.18177205 -0.63465822 -4.3160208e+08
-15.75 -4.7049599 5.0323801 -0.018196808 0.0061655338 -0.9998154 -4.3160208e+08
-13.5 -4.7049599 5.0323801 0 0 -1 -4.3160208e+08
-12.375 -4.7049599 5.0323801 0 0 -1 -4.3160208e+08
-11.25 -4.7049599 5.0323801 0 0 -1 -4.3160208e+08
-9 -4.7049599 5.0323801 0 0 -1 -4.3160208e+08
-7.875 -4.7049599 5.0323801 nan nan nan -4.3160208e+08
-6.75 -4.7049599 5.0323801 0 0 1 -4.3160208e+08
-5.625 -4.7049599 5.0323801 0 0 1 -4.3160208e+08
-4.5 -4.7049599 5.0323801 0 0 1 -4.3160208e+08
-3.375 -4.7049599 5.0323801 0 0 1 -4.3160208e+08
-2.25 -4.7049599 5.0323801 0 0 1 -4.3160208e+08
0 -4.7049599 5.0323801 0 0 1 -4.3160208e+08
1.125 -4.7049599 5.0323801 0 0 1 -4.3160208e+08
2.25 -4.7049599 5.0323801 0 0 1 -4.3160208e+08
4.5 -4.7049599 5.0323801 0 0 1 -4.3160208e+08
5.625 -4.7049599 5.0323801 nan nan nan -4.3160208e+08
6.75 -4.7049599 5.0323801 0 0 1 -4.3160208e+08
9 -4.7049599 5.0323801 0 0 -1 -4.3160208e+08
10.125 -4.7049599 5.0323801 nan nan nan -4.3160208e+08
11.25 -4.7049599 5.0323801 0 0 1 -4.3160208e+08
13.5 -4.7049599 5.0323801 0 0 1 -4.3160208e+08
14.625 -4.7049599 5.0323801 -0.013691903 -0.0048321998 0.99989462 -4.3160208e+08
16.433001 -4.6688099 5.13238 0.31770444 -0.013400052 0.94809514 -4.3160208e+08
-10.125 -3.964834 5.0323801 0 0 -1 -4.3160208e+08
-1.125 -3.964834 5.0323801 0 0 1 -4.3160208e+08
3.375 -3.964834 5.0323801 0 0 1 -4.3160208e+08
7.875 -3.964834 5.0323801 0 0 1 -4.3160208e+08
12.375 -3.964834 5.0323801 0 0 1 -4.3160208e+08
-15.75 -3.224709 5.0323801 -0.013312816 -0.0063098362 -0.99989152 -4.3160208e+08
-14.625 -3.224709 5.0323801 0 0 -1 -4.3160208e+08
-13.5 -3.224709 5.0323801 0 0 -1 -4.3160208e+08
-12.375 -3.224709 5.0323801 0 0 -1 -4.3160208e+08
-11.25 -3.224709 5.0323801 0 0 -1 -4.3160208e+08
-9 -3.224709 5.0323801 0 0 -1 -4.3160208e+08
-7.875 -3.224709 5.0323801 nan nan nan -4.3160208e+08
-6.75 -3.224709 5.0323801 0 0 1 -4.3160208e+08
-4.5 -3.224709 5.0323801 0 0 1 -4.3160208e+08
-3.375 -3.224709 5.0323801 0 0 1 -4.3160208e+08
-2.25 -3.224709 5.0323801 0 0 1 -4.3160208e+08
0 -3.224709 5.0323801 0 0 1 -4.3160208e+08
1.125 -3.224709 5.0323801 0 0 1 -4.3160208e+08
2.25 -3.224709 5.0323801 0 0 1 -4.3160208e+08
4.5 -3.224709 5.0323801 0 0 1 -4.3160208e+08
5.625 -3.224709 5.0323801 0 0 1 -4.3160208e+08
6.75 -3.224709 5.0323801 0 0 1 -4.3160208e+08
9 -3.224709 5.0323801 nan nan nan -4.3160208e+08
10.125 -3.224709 5.0323801 nan nan nan -4.3160208e+08
11.25 -3.224709 5.0323801 0 0 1 -4.3160208e+08
13.5 -3.224709 5.0323801 0 0 1 -4.3160208e+08
14.625 -3.224709 5.0323801 0 0 1 -4.3160208e+08
15.75 -3.224709 5.0323801 -0.015124357 0.015889218 0.99975938 -4.3160208e+08
-16.875 -2.4845841 5.0323801 0.20089883 -0.051434025 -0.97826082 -4.3160208e+08
-10.125 -2.4845841 5.0323801 0 0 -1 -4.3160208e+08
-5.625 -2.4845841 5.0323801 0 0 1 -4.3160208e+08
-1.125 -2.4845841 5.0323801 0 0 1 -4.3160208e+08
3.375 -2.4845841 5.0323801 0 0 1 -4.3160208e+08
7.875 -2.4845841 5.0323801 0 0 1 -4.3160208e+08
12.375 -2.4845841 5.0323801 0 0 1 -4.3160208e+08
16.875 -2.4845841 5.0323801 0.39720377 -0.075937726 0.91458327 -4.3160208e+08
-15.75 -1.744458 5.0323801 0 0 -1 -4.3160208e+08
-14.625 -1.744458 5.0323801 0 0 -1 -4.3160208e+08
-13.5 -1.744458 5.0323801 0 0 -1 -4.3160208e+08
-11.25 -1.744458 5.0323801 0 0 -1 -4.3160208e+08
-9 -1.744458 5.0323801 0 0 -1 -4.3160208e+08
-7.875 -1.744458 5.0323801 nan nan nan -4.3160208e+08
-6.75 -1.744458 5.0323801 0 0 1 -4.3160208e+08
-4.5 -1.744458 5.0323801 0 0 1 -4.3160208e+08
-3.375 -1.744458 5.0323801 0 0 1 -4.3160208e+08
-2.25 -1.744458 5.0323801 0 0 1 -4.3160208e+08
0 -1.744458 5.0323801 0 0 1 -4.3160208e+08
1.125 -1.744458 5.0323801 0 0 1 -4.3160208e+08
2.25 -1.744458 5.0323801 0 0 1 -4.3160208e+08
4.5 -1.744458 5.0323801 0 0 1 -4.3160208e+08
5.625 -1.744458 5.0323801 0 0 1 -4.3160208e+08
6.75 -1.744458 5.0323801 0 0 1 -4.3160208e+08
9 -1.744458 5.0323801 0 0 1 -4.3160208e+08
10.125 -1.744458 5.0323801 nan nan nan -4.3160208e+08
11.25 -1.744458 5.0323801 0 0 1 -4.3160208e+08
13.5 -1.744458 5.0323801 0 0 1 -4.3160208e+08
14.625 -1.744458 5.0323801 0 0 1 -4.3160208e+08
15.75 -1.744458 5.0323801 0 0 1 -4.3160208e+08
-16.875 -1.004333 5.0323801 -0.75442284 -0.6358425 -0.16294327 -4.3160208e+08
-12.375 -1.004333 5.0323801 0 0 -1 -4.3160208e+08
-5.625 -1.004333 5.0323801 0 0 1 -4.3160208e+08
-1.125 -1.004333 5.0323801 0 0 1 -4.3160208e+08
3.375 -1.004333 5.0323801 0 0 1 -4.3160208e+08
7.875 -1.004333 5.0323801 0 0 1 -4.3160208e+08
12.375 -1.004333 5.0323801 0 0 1 -4.3160208e+08
16.875 -1.004333 5.0323801 0.16018225 0 0.98708749 -4.3160208e+08
-18 -0.26420799 5.0323801 -0.057873204 -0.087968051 0.99444073 -4.3160208e+08
-15.75 -0.26420799 5.0323801 0 0 -1 -4.3160208e+08
-14.625 -0.26420799 5.0323801 0 0 -1 -4.3160208e+08
-13.5 -0.26420799 5.0323801 0 0 -1 -4.3160208e+08
-11.25 -0.26420799 5.0323801 0 0 -1 -4.3160208e+08
-10.125 -0.26420799 5.0323801 0 0 -1 -4.3160208e+08
-9 -0.26420799 5.0323801 nan nan nan -4.3160208e+08
-7.875 -0.26420799 5.0323801 0 0 1 -4.3160208e+08
-6.75 -0.26420799 5.0323801 0 0 1 -4.3160208e+08
-4.5 -0.26420799 5.0323801 0 0 1 -4.3160208e+08
-3.375 -0.26420799 5.0323801 0 0 1 -4.3160208e+08
-2.25 -0.26420799 5.0323801 0 0 1 -4.3160208e+08
0 -0.26420799 5.0323801 0 0 1 -4.3160208e+08
1.125 -0.26420799 5.0323801 0 0 1 -4.3160208e+08
2.25 -0.26420799 5.0323801 0 0 1 -4.3160208e+08
4.5 -0.26420799 5.0323801 0 0 1 -4.3160208e+08
6.75 -0.26420799 5.0323801 0 0 1 -4.3160208e+08
9 -0.26420799 5.0323801 0 0 1 -4.3160208e+08
10.125 -0.26420799 5.0323801 0 0 1 -4.3160208e+08
11.25 -0.26420799 5.0323801 0 0 1 -4.3160208e+08
13.5 -0.26420799 5.0323801 0 0 1 -4.3160208e+08
14.625 -0.26420799 5.0323801 0 0 1 -4.3160208e+08
15.75 -0.26420799 5.0323801 0 0 1 -4.3160208e+08
-16.875 0.47591799 5.0323801 nan nan nan -4.3160208e+08
-12.375 0.47591799 5.0323801 0 0 -1 -4.3160208e+08
-5.625 0.47591799 5.0323801 0 0 1 -4.3160208e+08
-1.125 0.47591799 5.0323801 0 0 1 -4.3160208e+08
3.375 0.47591799 5.0323801 0 0 1 -4.3160208e+08
5.625 0.47591799 5.0323801 0 0 1 -4.3160208e+08
7.875 0.47591799 5.0323801 0 0 1 -4.3160208e+08
12.375 0.47591799 5.0323801 0 0 1 -4.3160208e+08
16.875 0.47591799 5.0323801 0.17786704 0.00021842867 0.98405451 -4.3160208e+08
-18 1.216043 5.0323801 -0.70710677 0 0.70710677 -4.3160208e+08
-15.75 1.216043 5.0323801 0 0 -1 -4.3160208e+08
-14.625 1.216043 5.0323801 0 0 -1 -4.3160208e+08
-13.5 1.216043 5.0323801 0 0 -1 -4.3160208e+08
-11.25 1.216043 5.0323801 0 0 -1 -4.3160208e+08
-10.125 1.216043 5.0323801 0 0 -1 -4.3160208e+08
-9 1.216043 5.0323801 nan nan nan -4.3160208e+08
-6.75 1.216043 5.0323801 0 0 1 -4.3160208e+08
-4.5 1.216043 5.0323801 0 0 1 -4.3160208e+08
-3.375 1.216043 5.0323801 0 0 1 -4.3160208e+08
-2.25 1.216043 5.0323801 0 0 1 -4.3160208e+08
0 1.216043 5.0323801 0 0 1 -4.3160208e+08
1.125 1.216043 5.0323801 0 0 1 -4.3160208e+08
2.25 1.216043 5.0323801 0 0 1 -4.3160208e+08
4.5 1.216043 5.0323801 0 0 1 -4.3160208e+08
6.75 1.216043 5.0323801 0 0 1 -4.3160208e+08
9 1.216043 5.0323801 0 0 1 -4.3160208e+08
10.125 1.216043 5.0323801 0 0 1 -4.3160208e+08
11.25 1.216043 5.0323801 0 0 1 -4.3160208e+08
13.5 1.216043 5.0323801 0 0 1 -4.3160208e+08
14.625 1.216043 5.0323801 0 0 1 -4.3160208e+08
15.75 1.216043 5.0323801 0 0 1 -4.3160208e+08
-16.875 1.9561681 5.0323801 nan nan nan -4.3160208e+08
-12.375 1.9561681 5.0323801 0 0 -1 -4.3160208e+08
-7.875 1.9561681 5.0323801 0 0 1 -4.3160208e+08
-1.125 1.9561681 5.0323801 0 0 1 -4.3160208e+08
3.375 1.9561681 5.0323801 0 0 1 -4.3160208e+08
5.625 1.9561681 5.0323801 0 0 1 -4.3160208e+08
7.875 1.9561681 5.0323801 0 0 1 -4.3160208e+08
12.375 1.9561681 5.0323801 0 0 1 -4.3160208e+08
16.875 1.9561681 5.0323801 0.16018225 0 0.98708749 -4.3160208e+08
-18 2.6962941 5.0323801 -0.92167497 0.19212171 0.33705267 -4.3160208e+08
-15.75 2.6962941 5.0323801 0 0 -1 -4.3160208e+08
-14.625 2.6962941 5.0323801 0 0 -1 -4.3160208e+08
-13.5 2.6962941 5.0323801 0 0 -1 -4.3160208e+08
-11.25 2.6962941 5.0323801 0 0 -1 -4.3160208e+08
-10.125 2.6962941 5.0323801 0 0 -1 -4.3160208e+08
-9 2.6962941 5.0323801 nan nan nan -4.3160208e+08
-6.75 2.6962941 5.0323801 0 0 1 -4.3160208e+08
-5.625 2.6962941 5.0323801 0 0 1 -4.3160208e+08
-4.5 2.6962941 5.0323801 0 0 1 -4.3160208e+08
-3.375 2.6962941 5.0323801 0 0 1 -4.3160208e+08
-2.25 2.6962941 5.0323801 0 0 1 -4.3160208e+08
0 2.6962941 5.0323801 0 0 1 -4.3160208e+08
1.125 2.6962941 5.0323801 0 0 1 -4.3160208e+08
2.25 2.6962941 5.0323801 0 0 1 -4.3160208e+08
4.5 2.6962941 5.0323801 0 0 1 -4.3160208e+08
6.75 2.6962941 5.0323801 0 0 1 -4.3160208e+08
9 2.6962941 5.0323801 0 0 1 -4.3160208e+08
10.125 2.6962941 5.0323801 0 0 1 -4.3160208e+08
11.25 2.6962941 5.0323801 0 0 1 -4.3160208e+08
13.5 2.6962941 5.0323801 0 0 1 -4.3160208e+08
14.625 2.6962941 5.0323801 0 0 1 -4.3160208e+08
15.75 2.6962941 5.0323801 0 0 1 -4.3160208e+08
-16.875 3.436419 5.0323801 0 0 -1 -4.3160208e+08
-12.375 3.436419 5.0323801 0 0 -1 -4.3160208e+08
-7.875 3.436419 5.0323801 0 0 1 -4.3160208e+08
-1.125 3.436419 5.0323801 0 0 1 -4.3160208e+08
3.375 3.436419 5.0323801 0 0 1 -4.3160208e+08
7.875 3.436419 5.0323801 0 0 1 -4.3160208e+08
12.375 3.436419 5.0323801 0 0 1 -4.3160208e+08
16.875 3.436419 5.0323801 0.16441733 -0.022579599 0.98613244 -4.3160208e+08
-15.75 4.1765442 5.0323801 0 0 -1 -4.3160208e+08
-14.625 4.1765442 5.0323801 0 0 -1 -4.3160208e+08
-13.5 4.1765442 5.0323801 0 0 -1 -4.3160208e+08
-11.25 4.1765442 5.0323801 0 0 -1 -4.3160208e+08
-10.125 4.1765442 5.0323801 0 0 -1 -4.3160208e+08
-9 4.1765442 5.0323801 nan nan nan -4.3160208e+08
-6.75 4.1765442 5.0323801 0 0 1 -4.3160208e+08
-5.625 4.1765442 5.0323801 0 0 1 -4.3160208e+08
-4.5 4.1765442 5.0323801 0 0 1 -4.3160208e+08
-2.25 4.1765442 5.0323801 0 0 1 -4.3160208e+08
0 4.1765442 5.0323801 0 0 1 -4.3160208e+08
1.125 4.1765442 5.0323801 0 0 1 -4.3160208e+08
2.25 4.1765442 5.0323801 0 0 1 -4.3160208e+08
4.5 4.1765442 5.0323801 0 0 1 -4.3160208e+08
5.625 4.1765442 5.0323801 0 0 1 -4.3160208e+08
6.75 4.1765442 5.0323801 0 0 1 -4.3160208e+08
9 4.1765442 5.0323801 0 0 1 -4.3160208e+08
10.125 4.1765442 5.0323801 0 0 1 -4.3160208e+08
11.25 4.1765442 5.0323801 0 0 1 -4.3160208e+08
13.5 4.1765442 5.0323801 0 0 1 -4.3160208e+08
14.625 4.1765442 5.0323801 0 0 1 -4.3160208e+08
15.75 4.1765442 5.0323801 0 0 1 -4.3160208e+08
-16.875 4.9166698 5.0323801 -0.57053703 -0.066005535 0.81861514 -4.3160208e+08
-12.375 4.9166698 5.0323801 0 0 -1 -4.3160208e+08
-7.875 4.9166698 5.0323801 0 0 1 -4.3160208e+08
-3.375 4.9166698 5.0323801 0 0 1 -4.3160208e+08
3.375 4.9166698 5.0323801 0 0 1 -4.3160208e+08
7.875 4.9166698 5.0323801 0 0 1 -4.3160208e+08
12.375 4.9166698 5.0323801 0 0 1 -4.3160208e+08
16.875 4.9166698 5.0323801 0 0 1 -4.3160208e+08
-18 5.656795 5.0323801 -0.5870685 -0.056091141 0.80759168 -4.3160208e+08
-15.75 5.656795 5.0323801 0 0 -1 -4.3160208e+08
-14.625 5.656795 5.0323801 0 0 -1 -4.3160208e+08
-13.5 5.656795 5.0323801 0 0 -1 -4.3160208e+08
-11.25 5.656795 5.0323801 0 0 -1 -4.3160208e+08
-10.125 5.656795 5.0323801 0 0 -1 -4.3160208e+08
-9 5.656795 5.0323801 nan nan nan -4.3160208e+08
-6.75 5.656795 5.0323801 0 0 1 -4.3160208e+08
-5.625 5.656795 5.0323801 0 0 1 -4.3160208e+08
-4.5 5.656795 5.0323801 0 0 1 -4.3160208e+08
-2.25 5.656795 5.0323801 0 0 1 -4.3160208e+08
-1.125 5.656795 5.0323801 0 0 1 -4.3160208e+08
0 5.656795 5.0323801 0 0 1 -4.3160208e+08
1.125 5.656795 5.0323801 0 0 1 -4.3160208e+08
2.25 5.656795 5.0323801 0 0 1 -4.3160208e+08
4.5 5.656795 5.0323801 0 0 1 -4.3160208e+08
5.625 5.656795 5.0323801 0 0 1 -4.3160208e+08
6.75 5.656795 5.0323801 0 0 1 -4.3160208e+08
9 5.656795 5.0323801 0 0 1 -4.3160208e+08
10.125 5.656795 5.0323801 0 0 1 -4.3160208e+08
11.25 5.656795 5.0323801 0 0 1 -4.3160208e+08
13.5 5.656795 5.0323801 0 0 1 -4.3160208e+08
14.625 5.656795 5.0323801 0 0 1 -4.3160208e+08
15.75 5.656795 5.0323801 0 0 1 -4.3160208e+08
18 5.656795 5.0323801 0.59552962 0.066811092 0.80055034 -4.3160208e+08
-16.875 6.3969202 5.0323801 nan nan nan -4.3160208e+08
-12.375 6.3969202 5.0323801 0 0 -1 -4.3160208e+08
-7.875 6.3969202 5.0323801 0 0 1 -4.3160208e+08
-3.375 6.3969202 5.0323801 0 0 1 -4.3160208e+08
3.375 6.3969202 5.0323801 0 0 1 -4.3160208e+08
7.875 6.3969202 5.0323801 0 0 1 -4.3160208e+08
12.375 6.3969202 5.0323801 0 0 1 -4.3160208e+08
16.875 6.3969207 5.0323801 0.40601224 0.052492101 0.91235882 -4.3160208e+08
-15.75 7.1370459 5.0323801 0 0 -1 -4.3160208e+08
-14.625 7.1370459 5.0323801 0 0 -1 -4.3160208e+08
-13.5 7.1370459 5.0323801 0 0 -1 -4.3160208e+08
-11.25 7.1370459 5.0323801 0 0 -1 -4.3160208e+08
-10.125 7.1370459 5.0323801 0 0 -1 -4.3160208e+08
-9 7.1370459 5.0323801 nan nan nan -4.3160208e+08
-6.75 7.1370459 5.0323801 0 0 1 -4.3160208e+08
-5.625 7.1370459 5.0323801 0 0 1 -4.3160208e+08
-4.5 7.1370459 5.0323801 0 0 1 -4.3160208e+08
-2.25 7.1370459 5.0323801 0 0 1 -4.3160208e+08
-1.125 7.1370459 5.0323801 0 0 1 -4.3160208e+08
0 7.1370459 5.0323801 0 0 1 -4.3160208e+08
2.25 7.1370459 5.0323801 0 0 1 -4.3160208e+08
4.5 7.1370459 5.0323801 0 0 1 -4.3160208e+08
5.625 7.1370459 5.0323801 0 0 1 -4.3160208e+08
6.75 7.1370459 5.0323801 0 0 1 -4.3160208e+08
9 7.1370459 5.0323801 0 0 1 -4.3160208e+08
10.125 7.1370459 5.0323801 0 0 1 -4.3160208e+08
11.25 7.1370459 5.0323801 0 0 1 -4.3160208e+08
13.5 7.1370459 5.0323801 0 0 1 -4.3160208e+08
14.625 7.1370459 5.0323801 0 0 1 -4.3160208e+08
15.75 7.1370459 5.0323801 0 0 1 -4.3160208e+08
-16.875 7.877171 5.0323801 -0.43458277 0.059681702 0.89865232 -4.3160208e+08
-12.375 7.877171 5.0323801 0 0 -1 -4.3160208e+08
-7.875 7.877171 5.0323801 0 0 1 -4.3160208e+08
-3.375 7.877171 5.0323801 0 0 1 -4.3160208e+08
1.125 7.877171 5.0323801 0 0 1 -4.3160208e+08
7.875 7.877171 5.0323801 0 0 1 -4.3160208e+08
12.375 7.877171 5.0323801 0 0 1 -4.3160208e+08
16.875 7.877171 5.0323801 0 0 1 -4.3160208e+08
-15.75 8.6172962 5.0323801 0 0 -1 -4.3160208e+08
-14.625 8.6172962 5.0323801 0 0 -1 -4.3160208e+08
-13.5 8.6172962 5.0323801 0 0 -1 -4.3160208e+08
-11.25 8.6172962 5.0323801 0 0 -1 -4.3160208e+08
-10.125 8.6172962 5.0323801 0 0 -1 -4.3160208e+08
-9 8.6172962 5.0323801 nan nan nan -4.3160208e+08
-6.75 8.6172962 5.0323801 0 0 1 -4.3160208e+08
-4.5 8.6172962 5.0323801 0 0 1 -4.3160208e+08
-2.25 8.6172962 5.0323801 0 0 1 -4.3160208e+08
-1.125 8.6172962 5.0323801 0 0 1 -4.3160208e+08
0 8.6172962 5.0323801 0 0 1 -4.3160208e+08
2.25 8.6172962 5.0323801 0 0 1 -4.3160208e+08
3.375 8.6172962 5.0323801 0 0 1 -4.3160208e+08
4.5 8.6172962 5.0323801 0 0 1 -4.3160208e+08
5.625 8.6172962 5.0323801 0 0 1 -4.3160208e+08
6.75 8.6172962 5.0323801 0 0 1 -4.3160208e+08
9 8.6172962 5.0323801 0 0 1 -4.3160208e+08
10.125 8.6172962 5.0323801 0 0 1 -4.3160208e+08
11.25 8.6172962 5.0323801 0 0 1 -4.3160208e+08
13.5 8.6172962 5.0323801 0 0 1 -4.3160208e+08
14.625 8.6172962 5.0323801 0 0 1 -4.3160208e+08
15.75 8.6172962 5.0323801 0 0 1 -4.3160208e+08
18 8.6172962 5.0323801 0.72850376 -0.15527079 0.66721308 -4.3160208e+08
-16.875 9.3574219 5.0323801 -0.98708749 0 -0.16018218 -4.3160208e+08
-12.375 9.3574219 5.0323801 0 0 -1 -4.3160208e+08
-7.875 9.3574219 5.0323801 0 0 1 -4.3160208e+08
-5.625 9.3574219 5.0323801 0 0 1 -4.3160208e+08
-3.375 9.3574219 5.0323801 0 0 1 -4.3160208e+08
1.125 9.3574219 5.0323801 0 0 1 -4.3160208e+08
7.875 9.3574219 5.0323801 0 0 1 -4.3160208e+08
12.375 9.3574219 5.0323801 0 0 1 -4.3160208e+08
16.875 9.3574219 5.0323801 0 0 1 -4.3160208e+08
-15.75 10.097548 5.0323801 0 0 -1 -4.3160208e+08
-14.625 10.097548 5.0323801 0 0 -1 -4.3160208e+08
-13.5 10.097548 5.0323801 0 0 -1 -4.3160208e+08
-11.25 10.097548 5.0323801 0 0 -1 -4.3160208e+08
-10.125 10.097548 5.0323801 0 0 -1 -4.3160208e+08
-9 10.097548 5.0323801 nan nan nan -4.3160208e+08
-6.75 10.097548 5.0323801 0 0 1 -4.3160208e+08
-4.5 10.097548 5.0323801 0 0 1 -4.3160208e+08
-2.25 10.097548 5.0323801 0 0 1 -4.3160208e+08
-1.125 10.097548 5.0323801 0 0 1 -4.3160208e+08
0 10.097548 5.0323801 0 0 1 -4.3160208e+08
2.25 10.097548 5.0323801 0 0 1 -4.3160208e+08
3.375 10.097548 5.0323801 0 0 1 -4.3160208e+08
4.5 10.097548 5.0323801 0 0 1 -4.3160208e+08
6.75 10.097548 5.0323801 0 0 1 -4.3160208e+08
9 10.097548 5.0323801 0 0 1 -4.3160208e+08
10.125 10.097548 5.0323801 0 0 1 -4.3160208e+08
11.25 10.097548 5.0323801 0 0 1 -4.3160208e+08
13.5 10.097548 5.0323801 0 0 1 -4.3160208e+08
14.625 10.097548 5.0323801 0 0 1 -4.3160208e+08
15.75 10.097548 5.0323801 0 0 1 -4.3160208e+08
18 10.097548 5.0323801 0.70710677 0 0.70710677 -4.3160208e+08
-16.875 10.837673 5.0323801 -0.97135437 0.0015283161 -0.23763065 -4.3160208e+08
-12.375 10.837673 5.0323801 0 0 -1 -4.3160208e+08
-7.875 10.837673 5.0323801 0 0 1 -4.3160208e+08
-5.625 10.837673 5.0323801 0 0 1 -4.3160208e+08
-3.375 10.837673 5.0323801 0 0 1 -4.3160208e+08
1.125 10.837673 5.0323801 0 0 1 -4.3160208e+08
5.625 10.837673 5.0323801 0 0 1 -4.3160208e+08
12.375 10.837673 5.0323801 0 0 1 -4.3160208e+08
16.875 10.837673 5.0323801 0 0 1 -4.3160208e+08
-15.75 11.577798 5.0323801 0 0 -1 -4.3160208e+08
-14.625 11.577798 5.0323801 0 0 -1 -4.3160208e+08
-13.5 11.577798 5.0323801 0 0 -1 -4.3160208e+08
-11.25 11.577798 5.0323801 0 0 -1 -4.3160208e+08
-10.125 11.577798 5.0323801 0 0 -1 -4.3160208e+08
-9 11.577798 5.0323801 nan nan nan -4.3160208e+08
-6.75 11.577798 5.0323801 0 0 1 -4.3160208e+08
-4.5 11.577798 5.0323801 0 0 1 -4.3160208e+08
-2.25 11.577798 5.0323801 0 0 1 -4.3160208e+08
-1.125 11.577798 5.0323801 0 0 1 -4.3160208e+08
0 11.577798 5.0323801 0 0 1 -4.3160208e+08
2.25 11.577798 5.0323801 0 0 1 -4.3160208e+08
3.375 11.577798 5.0323801 0 0 1 -4.3160208e+08
4.5 11.577798 5.0323801 0 0 1 -4.3160208e+08
6.75 11.577798 5.0323801 0 0 1 -4.3160208e+08
7.875 11.577798 5.0323801 0 0 1 -4.3160208e+08
9 11.577798 5.0323801 0 0 1 -4.3160208e+08
10.125 11.577798 5.0323801 0 0 1 -4.3160208e+08
11.25 11.577798 5.0323801 0 0 1 -4.3160208e+08
13.5 11.577798 5.0323801 0 0 1 -4.3160208e+08
14.625 11.577798 5.0323801 0 0 1 -4.3160208e+08
15.75 11.577798 5.0323801 0.00048741038 -0.020310557 0.99979359 -4.3160208e+08
18 11.577798 5.0323801 0.72728026 0.060477395 0.68367088 -4.3160208e+08
-16.875 12.317923 5.0323801 0.11054222 0.07726185 -0.9908638 -4.3160208e+08
-12.375 12.317923 5.0323801 0 0 -1 -4.3160208e+08
-7.875 12.317923 5.0323801 0 0 1 -4.3160208e+08
-3.375 12.317923 5.0323801 0 0 1 -4.3160208e+08
1.125 12.317923 5.0323801 0 0 1 -4.3160208e+08
5.625 12.317923 5.0323801 0 0 1 -4.3160208e+08
12.375 12.317923 5.0323801 0 0 1 -4.3160208e+08
16.875 12.317923 5.0323801 0.11557156 0.060496841 0.9914552 -4.3160208e+08
-15.75 13.058048 5.0323801 -0.017151767 0.0121402 -0.99977916 -4.3160208e+08
-14.625 13.058048 5.0323801 0 0 -1 -4.3160208e+08
-13.5 13.058048 5.0323801 0 0 -1 -4.3160208e+08
-11.25 13.058048 5.0323801 0 0 -1 -4.3160208e+08
-10.125 13.058048 5.0323801 0 0 -1 -4.3160208e+08
-9 13.058048 5.0323801 nan nan nan -4.3160208e+08
-6.75 13.058048 5.0323801 0 0 1 -4.3160208e+08
-5.625 13.058048 5.0323801 0 0 1 -4.3160208e+08
-4.5 13.058048 5.0323801 0 0 1 -4.3160208e+08
-2.25 13.058048 5.0323801 0 0 1 -4.3160208e+08
-1.125 13.058048 5.0323801 0 0 1 -4.3160208e+08
0 13.058048 5.0323801 0 0 1 -4.3160208e+08
2.25 13.058048 5.0323801 0 0 1 -4.3160208e+08
3.375 13.058048 5.0323801 0 0 1 -4.3160208e+08
4.5 13.058048 5.0323801 0 0 1 -4.3160208e+08
6.75 13.058048 5.0323801 0 0 1 -4.3160208e+08
7.875 13.058048 5.0323801 0 0 1 -4.3160208e+08
9 13.058048 5.0323801 0 0 1 -4.3160208e+08
11.25 13.058048 5.0323801 0 0 1 -4.3160208e+08
13.5 13.058048 5.0323801 0 0 1 -4.3160208e+08
14.625 13.058048 5.0323801 -0.013873883 0.00076376059 0.9999035 -4.3160208e+08
-17.566999 13.2312 5.13238 -0.9480949 0.31287441 0.056794185 -4.3160208e+08
16.433001 13.2312 5.13238 0.1633143 0.0036959494 0.9865672 -4.3160208e+08
-12.375 13.798174 5.0323801 0 0 -1 -4.3160208e+08
-7.875 13.798174 5.0323801 0 0 1 -4.3160208e+08
-3.375 13.798174 5.0323801 0 0 1 -4.3160208e+08
1.125 13.798174 5.0323801 0 0 1 -4.3160208e+08
5.625 13.798174 5.0323801 0 0 1 -4.3160208e+08
10.125 13.798174 5.0323801 0 0 1 -4.3160208e+08
-16.875 14.5383 5.0323801 -0.63249737 0.15085591 0.75972992 -4.3160208e+08
-15.75 14.5383 5.0323801 -0.0078546247 -0.010903379 -0.9999097 -4.3160208e+08
-14.625 14.5383 5.0323801 0 0 -1 -4.3160208e+08
-13.5 14.5383 5.0323801 0 0 -1 -4.3160208e+08
-11.25 14.5383 5.0323801 0 0 -1 -4.3160208e+08
-10.125 14.5383 5.0323801 0 0 -1 -4.3160208e+08
-9 14.5383 5.0323801 nan nan nan -4.3160208e+08
-6.75 14.5383 5.0323801 0 0 1 -4.3160208e+08
-5.625 14.5383 5.0323801 0 0 1 -4.3160208e+08
-4.5 14.5383 5.0323801 0 0 1 -4.3160208e+08
-2.25 14.5383 5.0323801 0 0 1 -4.3160208e+08
-1.125 14.5383 5.0323801 0 0 1 -4.3160208e+08
0 14.5383 5.0323801 0 0 1 -4.3160208e+08
2.25 14.5383 5.0323801 0 0 1 -4.3160208e+08
3.375 14.5383 5.0323801 0 0 1 -4.3160208e+08
4.5 14.5383 5.0323801 0 0 1 -4.3160208e+08
6.75 14.5383 5.0323801 0 0 1 -4.3160208e+08
7.875 14.5383 5.0323801 0 0 1 -4.3160208e+08
9 14.5383 5.0323801 0 0 1 -4.3160208e+08
11.25 14.5383 5.0323801 0 0 1 -4.3160208e+08
12.375 14.5383 5.0323801 0 0 1 -4.3160208e+08
13.5 14.5383 5.0323801 0 0 1 -4.3160208e+08
14.625 14.5383 5.0323801 0 0 1 -4.3160208e+08
15.75 14.5383 5.0323801 -0.019382905 0.02041484 0.99960369 -4.3160208e+08
-12.375 15.278425 5.0323801 0 0 -1 -4.3160208e+08
-7.875 15.278425 5.0323801 0 0 1 -4.3160208e+08
-3.375 15.278425 5.0323801 0 0 1 -4.3160208e+08
5.625 15.278425 5.0323801 0 0 1 -4.3160208e+08
10.125 15.278425 5.0323801 0 0 1 -4.3160208e+08
16.875 15.278425 5.0323801 0.15668334 -0.048779108 0.98644364 -4.3160208e+08
-16.875 16.018551 5.0323801 -0.26633459 -0.17427705 0.94799441 -4.3160208e+08
-15.75 16.018551 5.0323801 0.99737477 0.072329521 -0.0034713142 -4.3160208e+08
-14.625 16.018551 5.0323801 -0.0040662661 -0.012438203 -0.99991441 -4.3160208e+08
-13.5 16.018551 5.0323801 0.0081127035 -0.026524805 -0.99961525 -4.3160208e+08
-11.25 16.018551 5.0323801 -0.0026591311 -0.018731818 -0.99982101 -4.3160208e+08
-10.125 16.018551 5.0323801 0.0014816448 -0.0140615 -0.99990004 -4.3160208e+08
-9 16.018551 5.0323801 -0.86162537 0.50735581 -0.013847604 -4.3160208e+08
-6.75 16.018551 5.0323801 0.0025610712 0.0081572868 0.99996346 -4.3160208e+08
-5.625 16.018551 5.0323801 -0.00076884474 0.0084030405 0.99996442 -4.3160208e+08
-4.5 16.018551 5.0323801 0.002061177 0.01660311 0.99986005 -4.3160208e+08
-2.25 16.018551 5.0323801 0.0012903804 0.0038724644 0.99999171 -4.3160208e+08
-1.125 16.018551 5.0323801 -0.00087853178 0.0063467138 0.9999795 -4.3160208e+08
0 16.018551 5.0323801 0.0029446385 0.0019110851 0.99999386 -4.3160208e+08
1.125 16.018551 5.0323801 0 0.0038221183 0.99999273 -4.3160208e+08
2.25 16.018551 5.0323801 -0.00085649587 0.0020815041 0.9999975 -4.3160208e+08
3.375 16.018551 5.0323801 0.0081231343 0.0058495877 0.99994993 -4.3160208e+08
4.5 16.018551 5.0323801 -0.0030706262 0.021697436 0.99975991 -4.3160208e+08
6.75 16.018551 5.0323801 0.0034399957 0.017409576 0.99984252 -4.3160208e+08
7.875 16.018551 5.0323801 -0.00066135894 0.013386023 0.99991024 -4.3160208e+08
9 16.018551 5.0323801 -0.0065132426 0.018712239 0.99980372 -4.3160208e+08
11.25 16.018551 5.0323801 0.002561071 0.0081572868 0.99996346 -4.3160208e+08
12.375 16.018551 5.0323801 -0.00076884509 0.0084030405 0.99996442 -4.3160208e+08
13.5 16.018551 5.0323801 0.0020611666 0.016603114 0.99986005 -4.3160208e+08
15.75 16.018551 5.0323801 0.00042999518 0.0037590039 0.99999285 -4.3160208e+08
-12.375 16.758675 5.0323801 0.0011702016 -0.024557551 -0.99969774 -4.3160208e+08
-7.875 16.758675 5.0323801 -0.0032242814 0.015181147 0.9998796 -4.3160208e+08
-3.375 16.758675 5.0323801 -0.0079538338 0.016905883 0.99982548 -4.3160208e+08
5.625 16.758675 5.0323801 -0.0015062335 0.023080405 0.99973249 -4.3160208e+08
10.125 16.758675 5.0323801 -0.0032242814 0.015181147 0.9998796 -4.3160208e+08
14.625 16.758675 5.0323801 -0.0079538357 0.016905887 0.99982548 -4.3160208e+08
-18 17.4988 5.0323801 0.69437295 -0.10528146 -0.71187222 -4.3160208e+08
0 17.4988 5.0323801 -0.0016693908 0.053373273 0.99857324 -4.3160208e+08
2.25 17.4988 5.0323801 -0.0015008516 0.050241824 0.99873596 -4.3160208e+08
3.343081 17.576256 5.0245681 0.010680524 0.052113902 0.99858403 -4.3160208e+08
16.843082 17.576256 5.0245681 -0.0020827977 0.043400344 0.99905562 -4.3160208e+08
18 17.4988 5.0323801 0.72417033 0.13674836 0.67592692 -4.3160208e+08
-16.843081 17.731163 5.0089431 -0.019514434 0.099771298 0.99481899 -4.3160208e+08
-2.313838 17.653713 5.0167551 -3.5934594e-05 0.055651367 0.99845028 -4.3160208e+08
1.061162 17.653713 5.0167551 0.00022608087 0.04579198 0.99895102 -4.3160208e+08
15.686163 17.653713 5.0167551 -0.0040170318 0.061146528 0.99812073 -4.3160208e+08
-6.8776751 17.808624 5.0011301 0.0016157439 0.062518097 0.99804252 -4.3160208e+08
-4.6276751 17.808624 5.0011301 0.0057850555 0.059935372 0.99818552 -4.3160208e+08
11.122325 17.808624 5.0011301 0.0019390021 0.054932836 0.99848819 -4.3160208e+08
13.372325 17.808624 5.0011301 0.006942072 0.051830593 0.99863183 -4.3160208e+08
18.5625 -18.0012 5.2712021 0.83842152 -0.2741254 -0.47106761 -4.3160208e+08
-19.703125 -17.649387 5.2890401 -0.94821596 -0.28318182 -0.14385562 -4.3160208e+08
19.71875 -17.622324 5.2880259 -0.73324037 0.62883288 -0.25870395 -4.3160208e+08
-19.65625 -16.539824 5.2411952 0.94284552 -0.19011763 -0.27367404 -4.3160208e+08
19.65625 -16.539824 5.2411952 -0.8529979 -0.52190965 0.0021997567 -4.3160208e+08
-17.134001 -15.605949 5.2770901 2.4949204e-05 -0.92387921 -0.38268435 -4.3160208e+08
16.865999 -15.605949 5.2770901 -0.22352771 -0.90372097 -0.36513516 -4.3160208e+08
-17.134001 -18.0012 5.8334699 -0.01468255 0.97782296 0.20891766 -4.3160208e+08
16.865999 -18.0012 5.8334699 -0.69037724 -0.1138796 0.71443039 -4.3160208e+08
-18 -17.501202 5.93293 0.99710774 0.054633033 0.052833077 -4.3160211e+08
-16.2679 -17.5012 5.93293 0.54602897 -0.82048136 -0.16930079 -4.3160208e+08
16 -17.5012 5.93293 -0.89552414 -0.37695774 0.2365153 -4.3160208e+08
17.7321 -17.501202 5.93293 -0.83003712 0.52521998 0.1875695 -4.3160214e+08
-18.875 -18.0012 6.1981931 0.32507738 0.28803012 0.90075707 -4.3160208e+08
19.125 -18.0012 6.1733298 0.85687864 -0.5132255 0.048565492 -4.3160208e+08
-19.9375 -17.243452 6.1862993 0.91509408 0.34772182 -0.20418704 -4.3160211e+08
19.875 -16.918701 6.1657534 -0.80596346 -0.59105974 0.032729611 -4.3160211e+08
-18 -16.501202 6.1318407 0.90783656 -0.41029736 0.086537927 -4.3160214e+08
-16.2679 -16.5012 6.1318402 0.29873425 -0.9540242 -0.024408352 -4.3160208e+08
16 -16.5012 6.1318402 -0.96918923 -0.2092523 0.12994522 -4.3160208e+08
17.7321 -16.5012 6.1318402 -0.85974818 -0.50867385 -0.045650661 -4.3160211e+08
-19.25 -16.269199 6.116569 0.59476495 -0.77101386 -0.22757928 -4.3160208e+08
18.875 -16.269199 6.1414309 -0.097856984 -0.98998666 -0.10173697 -4.3160208e+08
-17.134001 -16.0012 6.2312999 0.13989483 -0.93398803 -0.32877913 -4.3160208e+08
16.865999 -16.0012 6.2312999 -0.024805427 -0.96549785 -0.25922695 -4.3160208e+08
-16.64682 -17.71995 6.8393488 -0.85669464 0.027298693 -0.51510096 -4.3160208e+08
17.35318 -17.71995 6.8393483 -0.96712065 -0.22309139 -0.12209742 -4.3160208e+08
-18 -17.188702 6.9495692 0.3546966 -0.84096891 0.40860933 -4.3160214e+08
16 -17.1887 6.9280386 -0.99322331 -0.057006311 0.10128078 -4.3160211e+08
-19.34375 -18.0012 7.1065354 0.36290884 0.41433802 0.83463836 -4.3160208e+08
18.65625 -18.0012 7.075458 -0.40557441 -0.89847237 0.16809753 -4.3160208e+08
19.671875 -17.70351 7.1160002 0.95660079 0.032039393 0.2896347 -4.3160208e+08
-19.703125 -16.621012 7.0649762 0.9285202 -0.066333272 -0.36530834 -4.3160208e+08
19.578125 -16.40451 7.056869 -0.55860227 -0.80406326 -0.20358247 -4.3160208e+08
-18.65625 -16.269199 7.0207229 0.17509997 -0.98313111 -0.05285034 -4.3160208e+08
-17.567001 -16.2512 7.1066394 0.31456572 -0.94853753 0.036400761 -4.3160211e+08
-16.538555 -16.34495 7.083437 0.067636162 -0.98127306 0.1803567 -4.3160208e+08
16.432999 -16.2512 7.1066389 -0.41071156 -0.91165829 0.013967682 -4.3160208e+08
17.461445 -16.34495 7.104969 -0.64535564 -0.71804696 0.26062357 -4.3160208e+08
-17.458754 -17.813702 7.7797246 -0.90314841 -0.42432195 -0.065374792 -4.3160214e+08
16.97426 -17.9387 7.745769 -0.67604566 0.65306991 -0.34126532 -4.3160211e+08
19.125 -18.0012 7.9775848 0.83474535 -0.50705135 0.21470711 -4.3160211e+08
-16.2679 -17.2512 7.8485541 0.48621884 -0.84931171 0.20557439 -4.3160208e+08
17.7321 -17.251202 7.8916163 -0.98651206 -0.075909175 0.14502288 -4.3160214e+08
-18 -16.8762 7.966207 0.033967242 -0.99876094 -0.036369212 -4.3160211e+08
16 -16.8762 7.9231448 0.53469205 -0.84123898 -0.080133796 -4.3160211e+08
19.8125 -16.810453 7.98244 -0.20724642 -0.97155827 -0.11455727 -4.3160211e+08
-19.1875 -16.269197 7.9248776 0.74495131 -0.6657666 0.042453483 -4.3160211e+08
18.875 -16.269197 7.9621725 -0.14388672 -0.96898234 0.20092228 -4.3160211e+08
-18.875 -18.0012 8.0148783 -0.22260508 0.93057191 0.29065925 -4.3160208e+08
-19.9375 -17.243452 8.0112314 0.9266516 0.36757246 0.078786306 -4.3160211e+08
-16.809214 -16.1887 8.0350351 -0.29185569 -0.95457387 0.060076255 -4.3160208e+08
16.75775 -16.063702 8.069006 0.0016987674 -0.99990654 0.013565679 -4.3160211e+08
-17.025738 -17.9387 8.6957016 0.70722425 -0.66007543 -0.2532475 -4.3160208e+08
16.541248 -17.8137 8.6696119 -0.23210685 0.8867836 -0.39967644 -4.3160208e+08
-19.65625 -17.730574 8.941946 0.93201631 0.26907042 -0.24278927 -4.3160208e+08
-18.34375 -17.730574 8.854928 -0.67660576 0.68018013 0.28206304 -4.3160208e+08
18.34375 -17.730574 8.854928 -0.62377036 0.71834892 -0.3080346 -4.3160208e+08
19.65625 -17.730574 8.941946 0.68648976 -0.72494495 -0.056449644 -4.3160208e+08
-16.2679 -16.8137 8.8685246 0.5450412 -0.74351609 0.38744524 -4.3160208e+08
-18 -16.6262 8.957983 0.14275391 -0.97983497 0.13980271 -4.3160208e+08
-19.59375 -16.431574 8.8786221 0.89488363 -0.40365267 0.19038887 -4.3160208e+08
17.623838 -16.438702 8.9704142 -0.69625723 -0.70182437 0.15056056 -4.3160214e+08
16.324749 -16.3137 8.9443455 -0.41845226 -0.89251417 -0.16827382 -4.3160208e+08
19.53125 -16.323324 8.8745689 -0.53428048 -0.82481956 -0.18497895 -4.3160208e+08
-17.079868 -16.03245 8.9957371 0.30897391 -0.94578427 0.10013659 -4.3160208e+08
18.75 -18.001202 9.7818384 0.012026923 -0.99986005 -0.011632565 -4.3160214e+08
17.082523 -17.8762 9.6580677 -0.032562565 0.99216396 -0.12062521 -4.3160208e+08
-17.783504 -17.626202 9.7259827 0.87150383 -0.47577843 0.11881113 -4.3160214e+08
-16.700951 -17.7512 9.6829309 0.78133613 -0.62271374 0.041730709 -4.3160211e+08
16 -17.2512 9.7144499 0.99550694 0.093229435 -0.016561065 -4.3160208e+08
19.75 -16.7022 9.7991266 0.75854784 -0.61510146 -0.21507072 -4.3160211e+08
-19 -16.269199 9.7331877 0.1566266 -0.98465443 0.076966092 -4.3160208e+08
18.75 -16.269197 9.7829123 -0.50632215 0.8312937 0.22932212 -4.3160211e+08
-19.25 -18.0012 9.8315649 0.95902002 -0.020951783 -0.28256249 -4.3160211e+08
17.7321 -17.001202 9.8503017 -0.99757761 -0.068965182 -0.009093157 -4.3160214e+08
-19.875 -16.918701 9.8072357 0.98937047 -0.14517841 -0.0083328262 -4.3160208e+08
-17.567001 -16.251202 9.8818445 0.76323742 -0.62788558 0.15240839 -4.3160214e+08
-16.484423 -16.3762 9.838769 -0.0062180259 -0.97730696 0.21173692 -4.3160208e+08
16.6495 -16.126202 9.9067087 0.25139484 -0.9612456 -0.11317023 -4.3160211e+08
16.324749 -17.6887 10.560372 0.19754954 0.95803118 -0.20772681 -4.3160208e+08
-18.6875 -18.0012 10.721261 -0.20025782 -0.12877913 0.97124296 -4.3160208e+08
19.28125 -18.0012 10.696399 0.57336849 -0.81913841 -0.016146775 -4.3160208e+08
-17.24225 -17.938702 10.604661 0.61598659 -0.7627424 0.19693775 -4.3160211e+08
-19.78125 -17.514074 10.758769 0.70132393 -0.71191657 -0.036326062 -4.3160208e+08
17.623838 -17.5637 10.683801 -0.99179536 0.091880992 0.088881187 -4.3160208e+08
-16.2679 -17.3762 10.622535 0.67091119 0.1992394 -0.71427006 -4.3160208e+08
-18 -17.126202 10.779916 0.96249956 0.13020858 0.23799218 -4.3160214e+08
19.96875 -17.081076 10.738358 0.7850017 -0.60164267 -0.14764288 -4.3160208e+08
16 -16.6262 10.734421 0.77842283 -0.61451262 -0.12818772 -4.3160208e+08
-19.640625 -16.512758 10.702404 0.9856866 0.11171108 -0.12626372 -4.3160208e+08
19.21875 -16.269199 10.693283 -0.35159901 0.88672298 0.30016741 -4.3160208e+08
17.461443 -16.34495 10.873158 -0.9576878 -0.27105919 -0.096752174 -4.3160208e+08
-16.971607 -16.09495 10.824338 0.89483887 0.24694255 0.37186408 -4.3160208e+08
18.8125 -18.001202 11.586093 -0.024037221 -0.99966854 0.0092262672 -4.3160214e+08
17.082521 -17.876202 11.557935 -0.28446451 0.95729893 -0.051562123 -4.3160211e+08
16 -17.2512 11.580346 0.93720335 0.30520406 -0.16882052 -4.3160211e+08
-18.8125 -16.269197 11.541496 0.99204057 0.12517469 -0.013663629 -4.3160211e+08
18.6875 -16.269199 11.578791 -0.44293821 0.88900667 0.11607265 -4.3160208e+08
-19.1875 -18.0012 11.64825 0.14259206 -0.98241973 -0.12049492 -4.3160211e+08
-17.783504 -17.626202 11.634943 0.95477003 0.26712182 0.13061465 -4.3160214e+08
19.75 -17.568203 11.673263 0.7472049 -0.66457081 0.0055333418 -4.3160214e+08
-19.9375 -17.026949 11.644605 0.94489026 -0.23475932 -0.22818919 -4.3160208e+08
-16.2679 -17.126202 11.605209 0.4122946 -0.91104984 0.0011396469 -4.3160211e+08
17.732096 -17.126198 11.734395 -0.98728579 -0.15878801 -0.007295588 -4.3160205e+08
19.65625 -16.539824 11.613786 0.70262879 0.70706683 0.079807557 -4.3160211e+08
-17.350502 -16.1262 11.756846 0.57507622 -0.80859613 0.12433689 -4.3160211e+08
16.649498 -16.1262 11.756847 0.040344257 -0.99013627 -0.13417327 -4.3160211e+08
19.34375 -18.0012 12.525515 0.37347567 -0.92756581 0.011729236 -4.3160211e+08
-16.809214 -17.8137 12.520299 0.70456755 -0.44542465 -0.55243236 -4.3160208e+08
16.324751 -17.6887 12.426269 0.42801628 0.87328857 -0.23274267 -4.3160208e+08
18.359375 -17.757637 12.460266 -0.56404495 -0.8034541 -0.19056427 -4.3160208e+08
-19.828125 -17.432888 12.58066 0.74329215 -0.66691494 -0.052356906 -4.3160208e+08
19.921875 -16.999889 12.553961 0.73080879 -0.52438867 0.43696105 -4.3160208e+08
-16.376163 -16.4387 12.587886 -0.18600026 -0.9206323 0.34327829 -4.3160208e+08
16 -16.5637 12.575454 0.79538351 -0.60521054 -0.032943651 -4.3160208e+08
-19.34375 -16.269199 12.482944 0.60845566 0.71546859 0.34334591 -4.3160208e+08
19.15625 -16.269197 12.514023 0.096435227 0.97062677 0.22041734 -4.3160208e+08
-18 -17.376202 12.639148 0.94081897 0.33784658 -0.026822193 -4.3160214e+08
17.7321 -16.876202 12.726171 -0.98518914 -0.048070226 -0.16459516 -4.3160214e+08
-17.729376 -16.34495 12.67236 0.58973676 0.78631723 -0.18416278 -4.3160208e+08
18.75 -18.0012 13.390348 0.76650089 0.48139891 0.42512521 -4.3160208e+08
-16.2679 -17.5012 13.396515 -0.96644372 0.22517675 -0.12362013 -4.3160208e+08
-19.25 -18.0012 13.464936 0.57278943 0.80660033 0.14597318 -4.3160211e+08
16.865999 -18.0012 13.432935 0.21500877 0.97616792 -0.029453326 -4.3160208e+08
-17.567001 -17.751202 13.519032 0.61852396 0.78528351 -0.027529325 -4.3160214e+08
17.7321 -17.501202 13.568767 -0.93898416 -0.28416631 -0.1937997 -4.3160214e+08
19.75 -17.568199 13.498194 0.92040592 -0.3726002 0.11841413 -4.3160211e+08
16 -17.0012 13.495971 0.97307062 -0.22598866 -0.045416668 -4.3160211e+08
-19.625 -16.485701 13.432502 0.94480312 -0.22209539 0.24087521 -4.3160208e+08
19.625 -16.485701 13.432502 -0.82733685 0.49145544 0.27200234 -4.3160211e+08
-16.700951 -16.2512 13.5457 -0.5018115 -0.85477144 0.13248056 -4.3160208e+08
-18 -16.501202 13.668218 0.96661937 0.23719871 0.096869946 -4.3160214e+08
17.732098 -16.5012 13.668216 -0.99605203 0.083776683 -0.02935328 -4.3160214e+08
16.865999 -16.0012 13.631849 -0.085848667 -0.98842782 -0.12506211 -4.3160208e+08
19.4375 -18.0012 14.360849 0.8384791 -0.44947281 0.30810237 -4.3160208e+08
-19.59375 -17.838823 14.391936 0.84130323 0.53738457 -0.058538329 -4.3160208e+08
-16.592688 -17.6887 14.394076 -0.69915164 0.7126478 -0.057619724 -4.3160208e+08
16.10825 -17.5637 14.317031 0.68182093 0.72197831 0.1177608 -4.3160208e+08
19.96875 -17.081076 14.388222 -0.81231171 0.50193655 -0.29700077 -4.3160208e+08
-19.84375 -16.864576 14.363348 0.33603069 0.7373603 -0.58598906 -4.3160208e+08
19.09375 -16.269199 14.334763 -0.3017211 0.91589558 -0.26476327 -4.3160208e+08
17.136656 -17.84495 14.413949 0.81856751 -0.56332678 0.11229512 -4.3160208e+08
-17.945875 -17.53245 14.517027 0.60223967 0.79773718 -0.03037549 -4.3160208e+08
-16.2679 -16.6262 14.416486 -0.96669334 -0.2533564 0.036255967 -4.3160208e+08
16.324749 -16.3137 14.481099 0.27036247 -0.92380577 -0.2710847 -4.3160208e+08
-17.404627 -16.15745 14.525838 -0.47373211 -0.76405936 0.4379397 -4.3160208e+08
17.7321 -16.876202 14.610266 0.59503019 -0.79937726 0.083277717 -4.3160211e+08
18.875 -18.0012 15.194604 0.92822808 0.10730004 0.35620123 -4.3160208e+08
-18.9375 -16.269199 15.158115 0.18019147 -0.98333973 0.023957858 -4.3160208e+08
18.4375 -16.377449 15.162169 0.50918597 -0.75099361 -0.42040241 -4.3160211e+08
-19.125 -18.0012 15.281624 -0.6912179 0.53839028 -0.48203084 -4.3160211e+08
-17.3505 -17.876202 15.375853 0.49771759 0.86391312 0.077015117 -4.3160211e+08
16.541246 -17.8137 15.268189 0.90545267 0.40819889 0.11631514 -4.3160211e+08
-19.9375 -17.243452 15.31096 -0.22094364 -0.96951586 -0.10593808 -4.3160214e+08
-16.2679 -17.2512 15.31214 -0.90489227 0.42525622 -0.018086528 -4.3160208e+08
16 -16.7512 15.337003 0.8325578 -0.54352486 -0.10690326 -4.3160208e+08
19.6875 -16.593948 15.257296 0.49288085 -0.86412263 -0.10178624 -4.3160211e+08
17.515577 -17.626202 15.434676 -0.7014876 0.70887846 -0.07352908 -4.3160214e+08
-18 -16.751202 15.552313 0.95377314 -0.21709225 0.20781659 -4.3160214e+08
-16.917479 -16.1262 15.438912 -0.61241722 -0.7374649 0.28476426 -4.3160208e+08
17.082521 -16.1262 15.525039 -0.76342267 -0.48634204 0.42503792 -4.3160211e+08
18.3125 -17.676449 16.059458 0.22351809 -0.90656823 -0.35801354 -4.3160208e+08
17.7321 -16.8137 16.023338 0.71254092 0.70061308 0.037772171 -4.3160208e+08
-19.71875 -16.648075 16.169693 0.88551837 -0.035504255 -0.46324578 -4.3160208e+08
19.1875 -16.269199 16.155504 0.13791227 -0.95111817 0.27632317 -4.3160208e+08
16.974262 -17.9387 16.295166 0.15715286 0.98384017 0.085798793 -4.3160208e+08
-16.538555 -17.65745 16.249203 -0.60049897 0.798406 -0.044145592 -4.3160208e+08
19.78125 -17.514074 16.233566 -0.86561775 0.27130702 -0.42083055 -4.3160208e+08
16 -17.376202 16.220221 -0.37885821 -0.68181187 0.62577885 -4.3160211e+08
-16.376163 -16.4387 16.269951 -0.9324981 0.037770499 0.35919443 -4.3160208e+08
16.270624 -16.34495 16.311363 0.08323393 -0.98779321 -0.13166893 -4.3160208e+08
-17.729376 -16.34495 16.44055 -0.25890335 -0.84612733 0.46587297 -4.3160208e+08
18.5 -18.0012 16.998859 0.84730923 0.52394044 0.086910792 -4.3160208e+08
-18.25 -17.568201 16.94916 0.92210072 0.30243355 0.24137981 -4.3160214e+08
18 -17.135197 16.932943 -0.25036639 0.80751312 -0.53407794 -4.3160211e+08
-19 -16.269197 16.966427 0.55514824 -0.8181392 0.14986196 -4.3160211e+08
18.5 -16.269197 16.966427 -0.72369742 0.093302481 -0.68378121 -4.3160214e+08
-19.5 -18.0012 17.09831 -0.24760981 0.94613111 -0.20862719 -4.3160208e+08
19.5 -18.0012 17.09831 -0.84584594 0.51408935 -0.14232671 -4.3160211e+08
-20 -17.135201 17.131838 0.078921475 -0.99678826 0.013585048 -4.3160211e+08
-16.2679 -17.0012 17.178038 -0.99086875 0.12972406 0.036753479 -4.3160211e+08
16 -17.0012 17.178038 -0.69222218 -0.7148779 0.098883934 -4.3160211e+08
19.75 -16.7022 17.08209 0.24538746 0.96092081 -0.12812576 -4.3160211e+08
-17.350502 -17.8762 17.275717 -0.50798362 0.85833561 0.072198264 -4.3160208e+08
17.299049 -17.7512 17.300583 0.091692917 -0.96715885 0.23705749 -4.3160211e+08
-16.917477 -16.1262 17.289051 -0.16208106 -0.97874832 0.12562411 -4.3160208e+08
17.082521 -16.126202 17.375177 -0.34979734 -0.52707201 -0.77449143 -4.3160214e+08
