# .PCD v0.7 - Point Cloud Data file format
VERSION 0.7
FIELDS x y z
SIZE 4 4 4
TYPE F F F
COUNT 1 1 1
WIDTH 1337
HEIGHT 1
VIEWPOINT 0 0 0 1 0 0 0
POINTS 1337
DATA ascii
-0.11604545 -0.06245473 0.61366564
-0.10582902 -0.061987154 0.61400604
-0.094432183 -0.062538221 0.61488211
-0.083160035 -0.062838331 0.61405897
-0.074938782 -0.065545231 0.61538279
-0.066351689 -0.064336017 0.61571723
-0.058518544 -0.068017662 0.61779308
-0.42273796 -0.059951723 0.6174587
-0.4135325 -0.058674403 0.61631966
-0.40474129 -0.058031127 0.61755019
-0.39426085 -0.057360251 0.61508447
-0.38493699 -0.056494761 0.615008
-0.37454623 -0.054422509 0.61478674
-0.36519274 -0.053554155 0.61479223
-0.35547802 -0.052132417 0.6150263
-0.34648463 -0.052073874 0.61421466
-0.33545464 -0.051351976 0.61408371
-0.32427892 -0.051555872 0.61598945
-0.31609949 -0.050897241 0.6132161
-0.3054266 -0.055268526 0.61530608
-0.2943882 -0.056708325 0.615174
-0.28323975 -0.056638371 0.61633873
-0.27418417 -0.057790924 0.61703914
-0.26421711 -0.058701158 0.61657774
-0.25493091 -0.058178455 0.61545223
-0.24526776 -0.05767601 0.6147607
-0.23386921 -0.058220383 0.61527485
-0.22518848 -0.058849648 0.61705661
-0.21575774 -0.058103383 0.61508161
-0.20708859 -0.058601558 0.61494142
-0.19724837 -0.054786563 0.61575532
-0.18507022 -0.055135936 0.61658233
-0.17422621 -0.052661534 0.61574554
-0.16492562 -0.052021775 0.61479503
-0.15595298 -0.052936751 0.61474198
-0.14496836 -0.05495622 0.6150862
-0.13567871 -0.055292215 0.61585784
-0.12495576 -0.056151826 0.61483562
-0.11525087 -0.057703834 0.61485928
-0.1041591 -0.057945035 0.61491746
-0.095370702 -0.057599772 0.61826134
-0.086111143 -0.058176342 0.61612594
-0.078112699 -0.058331728 0.61387253
-0.0695467 -0.059600115 0.61956751
-0.36172619 -0.049233437 0.6165759
-0.35402411 -0.04918921 0.61571139
-0.34460008 -0.048272181 0.61544496
-0.33578238 -0.047559116 0.61544925
-0.32573774 -0.04694793 0.61502308
-0.31499717 -0.046675123 0.61419922
-0.30443853 -0.045313254 0.61583132
-0.29436371 -0.044187967 0.61563987
-0.28451371 -0.04479938 0.61488044
-0.27531943 -0.043836683 0.61556298
-0.26506242 -0.043057274 0.61494714
-0.25474495 -0.04265482 0.61409956
-0.2452496 -0.043129932 0.61423117
-0.23413205 -0.043211482 0.61570072
-0.22414614 -0.043831866 0.61591369
-0.21445791 -0.045325555 0.6154753
-0.20381992 -0.044674117 0.61490631
-0.19453198 -0.045283545 0.61537379
-0.18490848 -0.046436954 0.6154179
-0.1738749 -0.047582973 0.61578876
-0.1658581 -0.048227321 0.61477488
-0.15561296 -0.048388053 0.61533755
-0.14719681 -0.049036168 0.61425304
-0.13843869 -0.049620196 0.61871803
-0.27338064 -0.039994672 0.61015755
-0.26361588 -0.039397255 0.61657369
-0.25651658 -0.038241997 0.6144644
-0.24603634 -0.038426995 0.61635113
-0.23572205 -0.038610682 0.6161496
-0.22592805 -0.03874306 0.61667448
-0.21219712 -0.03923887 0.61797476
-0.41506702 -0.081192806 0.62527871
-0.40226826 -0.081622444 0.62295574
-0.39491662 -0.081076622 0.6246624
-0.37788391 -0.080149174 0.62683558
-0.11331455 -0.080299497 0.62681192
-0.10147925 -0.081664622 0.62607032
-0.091952205 -0.081148148 0.62122858
-0.086029842 -0.081289321 0.62503254
-0.07659179 -0.08065173 0.62386334
-0.42427233 -0.073859811 0.62354481
-0.41461003 -0.076079816 0.62419355
-0.40352461 -0.076845698 0.62426972
-0.39558765 -0.076002128 0.62547594
-0.38469154 -0.075816005 0.62484008
-0.37509471 -0.074962534 0.62415838
-0.3655709 -0.0735479 0.62494516
-0.35618517 -0.072886452 0.62470257
-0.34370345 -0.071420111 0.6231221
-0.3385838 -0.071352072 0.62470156
-0.32688075 -0.070256233 0.621207
-0.16571601 -0.070043087 0.62842631
-0.152485 -0.071452618 0.62820441
-0.14826784 -0.071320176 0.62202501
-0.13458927 -0.072556026 0.62344742
-0.12459064 -0.072189949 0.62444949
-0.11480448 -0.073340826 0.6244995
-0.10440293 -0.075518765 0.62442976
-0.094503485 -0.076232493 0.6250158
-0.086294107 -0.076957189 0.62459844
-0.075430542 -0.075485721 0.62538534
-0.065720931 -0.074888021 0.62539637
-0.42386696 -0.063862845 0.62484586
-0.41429991 -0.064104177 0.62460572
-0.40498927 -0.061448734 0.62395149
-0.39699566 -0.061889291 0.62444788
-0.38637674 -0.062059402 0.62189269
-0.37471604 -0.060919821 0.62199056
-0.36136037 -0.069779545 0.62426198
-0.35441726 -0.068151966 0.62732029
-0.34488299 -0.067191526 0.62554508
-0.33543026 -0.065882824 0.62571508
-0.32405421 -0.06357237 0.62486219
-0.31519261 -0.0629308 0.6254999
-0.30512545 -0.062017318 0.6254198
-0.29395464 -0.061914954 0.62506372
-0.28475663 -0.061969556 0.62453276
-0.2753498 -0.061389312 0.62505496
-0.26520914 -0.06140431 0.62548482
-0.25685614 -0.062281687 0.62506711
-0.24613787 -0.061880749 0.62737983
-0.23460539 -0.061732095 0.62643051
-0.22467348 -0.061354678 0.62405366
-0.21366969 -0.061824806 0.62419581
-0.20528272 -0.062259365 0.62534708
-0.19527058 -0.06207728 0.62599576
-0.1845102 -0.062959068 0.62419629
-0.17601354 -0.063685961 0.62482095
-0.16502823 -0.063755304 0.62443131
-0.15413189 -0.065301917 0.62447667
-0.14472005 -0.065608039 0.62543839
-0.13601245 -0.066746496 0.62606257
-0.12369056 -0.068835892 0.62665367
-0.11678107 -0.06542927 0.62446928
-0.10561841 -0.062140733 0.62509465
-0.094095841 -0.062331617 0.62465465
-0.08551693 -0.061864872 0.62410003
-0.075638041 -0.064630605 0.62557286
-0.065848842 -0.064297348 0.62562346
-0.059798241 -0.066732526 0.62137508
-0.42257926 -0.058911555 0.62867403
-0.41422138 -0.058062103 0.62602335
-0.40410104 -0.057365742 0.62522858
-0.39524156 -0.056125067 0.62556463
-0.38557911 -0.055093233 0.62430978
-0.37493926 -0.052879564 0.62620872
-0.36475414 -0.052264184 0.62413478
-0.35526001 -0.052116286 0.62370217
-0.34591031 -0.05163452 0.62487328
-0.33621097 -0.051549535 0.6250177
-0.32732195 -0.053330064 0.6206702
-0.31431514 -0.056361061 0.62564582
-0.30567449 -0.055279195 0.62205434
-0.29461727 -0.057482589 0.62408137
-0.28476375 -0.057197653 0.62758464
-0.2745775 -0.057776213 0.62481809
-0.26568246 -0.057697598 0.62497133
-0.25491115 -0.056968495 0.6257506
-0.24465466 -0.056870673 0.62649721
-0.23479484 -0.056922253 0.62615973
-0.22496037 -0.057567038 0.62470073
-0.21557173 -0.057491109 0.62684059
-0.2040077 -0.057199899 0.62594754
-0.19515951 -0.058481425 0.62689435
-0.18586619 -0.056215148 0.62416357
-0.17562103 -0.057171207 0.62622714
-0.16398425 -0.051282905 0.62448817
-0.15316416 -0.052959457 0.6251381
-0.14380413 -0.052953817 0.62440443
-0.13488819 -0.054489899 0.62496859
-0.12496068 -0.055260416 0.62444931
-0.11532845 -0.056289062 0.62607515
-0.1058057 -0.056910895 0.62461346
-0.093570627 -0.057768553 0.62538755
-0.086032443 -0.057460532 0.62578368
-0.075631499 -0.057953309 0.62479669
-0.068328768 -0.056135539 0.62421656
-0.36390507 -0.048802935 0.62593907
-0.35479742 -0.048292149 0.62512207
-0.34538773 -0.046414055 0.62487119
-0.33522964 -0.045807399 0.62425214
-0.32462129 -0.045221847 0.62518835
-0.31502455 -0.044105403 0.62505984
-0.30464759 -0.043249272 0.6252439
-0.29462856 -0.043214284 0.6243093
-0.28516164 -0.043128468 0.6244033
-0.27420375 -0.042249579 0.62569517
-0.26593336 -0.0416262 0.62220442
-0.25690034 -0.042360902 0.62290961
-0.24488318 -0.042105395 0.62286192
-0.23206963 -0.042294096 0.62412554
-0.22554627 -0.042107992 0.62376565
-0.21432026 -0.042418104 0.62546915
-0.20398428 -0.043150425 0.62468785
-0.1943125 -0.044252321 0.62385237
-0.1843473 -0.044482283 0.62593406
-0.1761339 -0.045287568 0.62486035
-0.16582377 -0.04632644 0.62611246
-0.15610993 -0.047877841 0.62499285
-0.14528358 -0.047613505 0.62697786
-0.13604775 -0.049359523 0.62292892
-0.1263327 -0.04932607 0.62670726
-0.30412441 -0.038687754 0.62904942
-0.29548272 -0.039375335 0.62854004
-0.28382373 -0.03869094 0.62527227
-0.27629906 -0.038733605 0.62701946
-0.26595929 -0.038338087 0.62559181
-0.25526085 -0.038258731 0.62399
-0.24510251 -0.037245713 0.6247282
-0.23518644 -0.038302887 0.62634319
-0.22508053 -0.038360585 0.62433082
-0.21560343 -0.039112315 0.62597114
-0.2078543 -0.038671516 0.62325388
-0.19019529 -0.038727023 0.62508512
-0.18605915 -0.039489239 0.62660766
-0.17438316 -0.039159335 0.62773144
-0.10011955 -0.080660224 0.63997996
-0.084123522 -0.081081748 0.6309455
-0.069818094 -0.080039501 0.63098061
-0.42360869 -0.072663173 0.63409024
-0.41371104 -0.074073158 0.63487524
-0.40518734 -0.07534451 0.6350348
-0.39496529 -0.074312955 0.63526332
-0.38513616 -0.073377065 0.63528341
-0.37612966 -0.073080577 0.63482147
-0.36663389 -0.072544232 0.63521004
-0.35662174 -0.071420275 0.63576394
-0.34670538 -0.071345694 0.63501912
-0.32949302 -0.070550084 0.63159025
-0.14210099 -0.070109367 0.63268721
-0.13663802 -0.070177317 0.63204265
-0.12335442 -0.071122341 0.63541347
-0.11410616 -0.07240022 0.63418496
-0.10439353 -0.073536158 0.63462633
-0.095220961 -0.075507134 0.63608509
-0.085599624 -0.07531476 0.63542008
-0.07618551 -0.074306592 0.63410783
-0.066378325 -0.074327104 0.63504362
-0.42346042 -0.064694814 0.63434082
-0.41572338 -0.06488727 0.63396072
-0.4054482 -0.060475796 0.63296455
-0.39832485 -0.062144041 0.63395214
-0.38459453 -0.065208286 0.63660204
-0.37264287 -0.069457248 0.63632822
-0.36462727 -0.068499371 0.63546962
-0.35513794 -0.06747064 0.63330746
-0.34532782 -0.066711694 0.63413531
-0.33450961 -0.064051874 0.63494086
-0.32482961 -0.062834546 0.63358986
-0.31498182 -0.062317591 0.63432109
-0.30502436 -0.061910193 0.63407046
-0.29401344 -0.06097883 0.63390392
-0.28591937 -0.061338972 0.63351321
-0.27625689 -0.061989587 0.63162082
-0.24605617 -0.060387015 0.63235092
-0.22836325 -0.060484767 0.63694805
-0.21661775 -0.061733484 0.63248795
-0.200766 -0.062057137 0.63135678
-0.19560194 -0.061522916 0.63584447
-0.18582295 -0.061410949 0.63388699
-0.17429321 -0.062102936 0.63387144
-0.16557366 -0.062267207 0.6342774
-0.15510923 -0.063190192 0.63513029
-0.14379643 -0.064721122 0.63377726
-0.13399425 -0.065942444 0.6347928
-0.12532122 -0.067197099 0.63575923
-0.11482173 -0.068198785 0.63630062
-0.10635468 -0.066171102 0.63477391
-0.095762014 -0.06492462 0.63576448
-0.083083078 -0.061391652 0.63639647
-0.074367225 -0.064147025 0.63453251
-0.066373244 -0.063783742 0.63449287
-0.42323503 -0.057970244 0.6361618
-0.41503492 -0.056421828 0.63554078
-0.4052853 -0.055691961 0.63545072
-0.39459673 -0.054311816 0.6346764
-0.38530985 -0.052912846 0.63538915
-0.37557173 -0.052718416 0.63452303
-0.36497858 -0.05181279 0.6348272
-0.35301676 -0.052193731 0.63304341
-0.33890933 -0.05199635 0.63210273
-0.32483152 -0.057783786 0.63597637
-0.31424955 -0.058403287 0.63519102
-0.30397865 -0.057300813 0.63564682
-0.29485729 -0.056715492 0.63466859
-0.28684956 -0.056508798 0.63547808
-0.27510637 -0.05683526 0.63425612
-0.26540866 -0.055495623 0.63567454
-0.25517094 -0.054837171 0.63552779
-0.24523416 -0.054754205 0.63532293
-0.2351933 -0.054387346 0.63486624
-0.22580029 -0.056187034 0.63553876
-0.215316 -0.056599431 0.63433844
-0.20378247 -0.057472497 0.63565546
-0.19537164 -0.057312381 0.63568354
-0.18500705 -0.058754977 0.63459271
-0.17678536 -0.057763945 0.63456213
-0.16355568 -0.056491997 0.63641638
-0.15558237 -0.05531624 0.63678223
-0.14327055 -0.052766494 0.6351763
-0.13424489 -0.052680817 0.63460046
-0.12529887 -0.053988807 0.63575405
-0.11538582 -0.054978631 0.63444281
-0.10484768 -0.055404816 0.63525879
-0.095030479 -0.056452811 0.63475394
-0.084038571 -0.057350621 0.6358124
-0.077190764 -0.057006095 0.63545519
-0.066264413 -0.058135081 0.63576096
-0.37463489 -0.048835628 0.63620168
-0.36509633 -0.047511324 0.63527149
-0.35433328 -0.046398211 0.63449723
-0.34434035 -0.045348998 0.63478267
-0.33393309 -0.044019777 0.63509071
-0.32579648 -0.043289341 0.6346581
-0.31545088 -0.042456031 0.63486731
-0.30499822 -0.042649195 0.63405913
-0.29555425 -0.041951071 0.63462782
-0.28379723 -0.042430338 0.63431585
-0.27100059 -0.042286515 0.63300157
-0.26640058 -0.041886143 0.63398892
-0.25586721 -0.042140495 0.63232833
-0.24476874 -0.04168136 0.63143593
-0.23600687 -0.041896377 0.63193858
-0.22484188 -0.042217992 0.63253903
-0.21456619 -0.042636853 0.63322926
-0.20574461 -0.041082218 0.6346091
-0.1954395 -0.042407427 0.63446212
-0.18396886 -0.043097429 0.63511837
-0.17428261 -0.043965466 0.6345939
-0.16447522 -0.045023095 0.6349144
-0.15491034 -0.046959054 0.63552856
-0.14566191 -0.047083899 0.63526201
-0.13542356 -0.048169244 0.63625264
-0.12661809 -0.048680544 0.63673818
-0.11968923 -0.049205363 0.6362223
-0.32281929 -0.039426461 0.63592482
-0.31417751 -0.039208826 0.63478529
-0.30531991 -0.038871557 0.63514066
-0.29419291 -0.038015828 0.63633877
-0.28522646 -0.037914105 0.63499123
-0.27527791 -0.03782941 0.6356591
-0.26513389 -0.037113678 0.63466597
-0.25536731 -0.036547363 0.63438302
-0.24573326 -0.036581486 0.63458544
-0.23480202 -0.0366267 0.63566762
-0.22465785 -0.037360329 0.63406813
-0.21581116 -0.037818328 0.63510007
-0.20382529 -0.037412595 0.63515759
-0.19462626 -0.037965138 0.63518625
-0.18436384 -0.037541296 0.63637912
-0.17551903 -0.039168477 0.63394135
-0.15683153 -0.039960049 0.63594615
-0.41755819 -0.080269456 0.64004475
-0.086854771 -0.080259442 0.64004642
-0.42307425 -0.071646556 0.64514774
-0.41558617 -0.072922736 0.64494193
-0.40545949 -0.073297091 0.64423704
-0.3950662 -0.072826102 0.64433557
-0.385317 -0.072494701 0.64456123
-0.37510073 -0.071844324 0.64498895
-0.365444 -0.072456658 0.64574111
-0.35672963 -0.071768984 0.64322448
-0.34387982 -0.070237398 0.64581633
-0.13511515 -0.071349204 0.64090198
-0.12298475 -0.071885601 0.64343941
-0.11409087 -0.072454572 0.6450296
-0.10468044 -0.072915129 0.64463443
-0.094130777 -0.073382109 0.64509904
-0.084642984 -0.07399556 0.64492869
-0.074733987 -0.073185377 0.64581788
-0.066249207 -0.07160154 0.64232826
-0.42391118 -0.065051511 0.64451802
-0.41586539 -0.066620067 0.64537257
-0.40374801 -0.069545865 0.64865988
-0.39330044 -0.069267429 0.64568573
-0.38268456 -0.068988688 0.64676684
-0.37401775 -0.068500675 0.64555866
-0.36488971 -0.067065932 0.64445877
-0.35423163 -0.065673418 0.6449936
-0.34441784 -0.063852765 0.64448482
-0.33468306 -0.063014083 0.64409518
-0.3253375 -0.062394533 0.64493376
-0.31564155 -0.062503479 0.6424911
-0.30577207 -0.061007917 0.64575148
-0.29550546 -0.06114459 0.6448338
-0.28586113 -0.061186731 0.64183855
-0.27238017 -0.060291409 0.64335483
-0.232201 -0.060486555 0.64332247
-0.21478355 -0.061207056 0.64233422
-0.2062155 -0.061433256 0.64186537
-0.19312637 -0.061721623 0.64346606
-0.18342836 -0.062285721 0.64068353
-0.17614082 -0.062396538 0.64277685
-0.1649106 -0.062097758 0.64368147
-0.15447572 -0.062343854 0.64577299
-0.14606898 -0.062962972 0.64427108
-0.13588916 -0.064975932 0.64510512
-0.12553373 -0.065930769 0.64562494
-0.11569665 -0.067390434 0.6447553
-0.10541566 -0.067405172 0.64603549
-0.095573559 -0.067694552 0.64723992
-0.082307689 -0.066782378 0.64392644
-0.075141259 -0.0655763 0.64562303
-0.067030221 -0.064553276 0.64552069
-0.42230466 -0.056958728 0.64426965
-0.41480741 -0.055165198 0.64570367
-0.40583196 -0.053883065 0.64529997
-0.395818 -0.053151123 0.64414603
-0.38475597 -0.052596021 0.64608729
-0.37561676 -0.05224159 0.64348477
-0.36453733 -0.052795928 0.64261866
-0.35410804 -0.051101565 0.64531851
-0.34053582 -0.05950737 0.64711183
-0.33471477 -0.058555417 0.64701021
-0.32356086 -0.057451576 0.64433354
-0.31399301 -0.056206584 0.64494014
-0.30570325 -0.055889837 0.64501554
-0.29565346 -0.055919472 0.6449157
-0.28497979 -0.054878235 0.64352673
-0.27573231 -0.054253761 0.64558768
-0.26473451 -0.053561449 0.64456397
-0.25457919 -0.053450271 0.64416152
-0.2447965 -0.053437721 0.6439395
-0.23517029 -0.053522602 0.64459419
-0.22450601 -0.054368045 0.64433211
-0.21427818 -0.053428113 0.64582032
-0.20577256 -0.055533964 0.64500087
-0.19434145 -0.055518128 0.64469534
-0.18405303 -0.056501597 0.64508104
-0.17496826 -0.056839392 0.64512545
-0.16510358 -0.057359286 0.64600474
-0.1556077 -0.058314431 0.64754266
-0.14539221 -0.054115832 0.64450586
-0.13464607 -0.053167179 0.646514
-0.12535249 -0.052378751 0.64415538
-0.11472818 -0.053398784 0.64511609
-0.10465084 -0.054007508 0.64562857
-0.094221286 -0.054491453 0.64469576
-0.083956137 -0.054795116 0.64586627
-0.076228 -0.056332149 0.64604658
-0.065616004 -0.055918172 0.64471817
-0.39122623 -0.049806565 0.6461767
-0.3846325 -0.048769545 0.64560091
-0.3742395 -0.047897942 0.64451551
-0.36459336 -0.046518866 0.64508086
-0.35446975 -0.044203755 0.64527774
-0.34514582 -0.043127149 0.64475751
-0.33533588 -0.042287964 0.6443544
-0.32506546 -0.042418521 0.64355212
-0.31493914 -0.042250399 0.64531958
-0.30480435 -0.041826207 0.64326948
-0.29656503 -0.041984666 0.6432628
-0.28495458 -0.041669413 0.64451623
-0.27409926 -0.04376037 0.64345855
-0.26622918 -0.043807905 0.64436966
-0.25660676 -0.04718031 0.64543444
-0.2445876 -0.046672028 0.64282495
-0.23571335 -0.043920178 0.64380097
-0.22630286 -0.045743339 0.64549506
-0.21390799 -0.04328014 0.64390373
-0.20781679 -0.043183327 0.64592278
-0.19526282 -0.042013958 0.64264089
-0.18529813 -0.042053148 0.64284968
-0.1745913 -0.042549636 0.64554274
-0.16415717 -0.043428469 0.64417017
-0.15536408 -0.04514404 0.64474118
-0.14555988 -0.045651674 0.64628148
-0.13581645 -0.046975981 0.64504105
-0.12605314 -0.047901683 0.64620876
-0.11479311 -0.048714463 0.64339787
-0.10532006 -0.0494605 0.64776158
-0.099644065 -0.049898207 0.6497165
-0.083174169 -0.049752593 0.64848578
-0.077833116 -0.049863517 0.64829206
-0.34237117 -0.038706407 0.6488719
-0.33516702 -0.039370649 0.64378381
-0.32483226 -0.038230449 0.64610744
-0.31578723 -0.038166236 0.64623404
-0.30591968 -0.037159514 0.64482301
-0.29503769 -0.036561336 0.64593732
-0.28401431 -0.036353841 0.64526135
-0.27466729 -0.035657216 0.64574867
-0.26510876 -0.034650899 0.64505583
-0.25706342 -0.035297181 0.64426589
-0.24566317 -0.035058182 0.64391577
-0.23454328 -0.03521803 0.64506245
-0.22479266 -0.035509598 0.6452924
-0.21555454 -0.035723917 0.64495939
-0.20494163 -0.036694691 0.64643729
-0.19559157 -0.036910783 0.6444518
-0.18368171 -0.037382178 0.64611423
-0.17409609 -0.038477875 0.64490545
-0.16447246 -0.036769971 0.64348996
-0.15320751 -0.038441427 0.64773113
-0.14564896 -0.039439768 0.64744365
-0.25575829 -0.029087678 0.64722383
-0.24117699 -0.029453024 0.64726055
-0.23736113 -0.02817291 0.64981294
-0.42113042 -0.070210576 0.65950847
-0.41360161 -0.072375417 0.65519935
-0.40447634 -0.07219629 0.65475285
-0.39498684 -0.072043613 0.65483606
-0.38579991 -0.07202255 0.65342706
-0.37679014 -0.0718688 0.65403086
-0.36710426 -0.071412742 0.65314496
-0.12593715 -0.07218194 0.65467983
-0.11251083 -0.071980983 0.65544677
-0.10425594 -0.071591549 0.65383601
-0.094947971 -0.072151959 0.65469575
-0.086060725 -0.072917789 0.65461946
-0.076046102 -0.07265877 0.65634406
-0.066940367 -0.073056221 0.65066355
-0.42354274 -0.064817257 0.65493584
-0.41675124 -0.065474823 0.65638804
-0.4040246 -0.06807141 0.65455794
-0.39492908 -0.068528183 0.65671712
-0.38412589 -0.068203539 0.65431976
-0.37425733 -0.067144044 0.65467012
-0.36510298 -0.06570138 0.65465856
-0.35445559 -0.06370464 0.65529513
-0.34512463 -0.062626973 0.65461224
-0.3349779 -0.062573589 0.65422028
-0.32624963 -0.06179468 0.65661114
-0.31834349 -0.061385751 0.65950608
-0.19202571 -0.060507178 0.65671086
-0.17722183 -0.061686397 0.65357113
-0.16412914 -0.061578054 0.65397292
-0.15400569 -0.062257066 0.65297139
-0.14341946 -0.061919365 0.65505689
-0.13575779 -0.063250467 0.65533417
-0.12449221 -0.065251455 0.65464908
-0.11515202 -0.066376723 0.65490258
-0.10637941 -0.067093283 0.65463358
-0.094948247 -0.068012908 0.6559875
-0.086241305 -0.067715824 0.65590495
-0.07446228 -0.065606058 0.65441453
-0.067038991 -0.065538354 0.65478128
-0.4234131 -0.056569885 0.65574336
-0.41586968 -0.054505363 0.65513194
-0.4051328 -0.052565053 0.65462637
-0.39603662 -0.052457888 0.65339822
-0.38753185 -0.052088592 0.65622097
-0.37545267 -0.051518656 0.65413713
-0.36446935 -0.050961822 0.65454495
-0.3438727 -0.058976833 0.65612054
-0.33430198 -0.058420677 0.65435404
-0.32523236 -0.055913948 0.6548205
-0.31529793 -0.055819731 0.65529388
-0.30541685 -0.054540075 0.65500462
-0.29393524 -0.054032791 0.6547699
-0.28508836 -0.052867197 0.65446937
-0.27556258 -0.053061076 0.65536767
-0.26451778 -0.052491549 0.65435398
-0.256825 -0.052203082 0.6545772
-0.24582176 -0.0526664 0.65471303
-0.23506533 -0.052431684 0.65490413
-0.22450651 -0.052064788 0.65466475
-0.21513532 -0.053260971 0.65531909
-0.20477781 -0.054086372 0.65483445
-0.19585453 -0.053991467 0.65548104
-0.18495621 -0.054936673 0.65457052
-0.174604 -0.055686027 0.65474534
-0.1643423 -0.056084115 0.6553666
-0.15558103 -0.057204098 0.65522784
-0.14510323 -0.056615423 0.65556705
-0.13319887 -0.057885844 0.65345711
-0.12526353 -0.05241634 0.65373999
-0.1153826 -0.051875476 0.65425038
-0.10510577 -0.052689217 0.65477461
-0.094799608 -0.053337637 0.65518105
-0.085924387 -0.054149993 0.65440804
-0.074604742 -0.055072628 0.65557832
-0.066244744 -0.056219053 0.65676129
-0.41263282 -0.049140878 0.65682966
-0.40334526 -0.049689732 0.65554619
-0.39428952 -0.048978012 0.65470338
-0.38422719 -0.047541622 0.65469521
-0.37533304 -0.046088282 0.65531653
-0.36412942 -0.044777784 0.6553247
-0.35413617 -0.043440737 0.65553474
-0.344742 -0.042403419 0.65399748
-0.33528662 -0.042465284 0.65481484
-0.32533288 -0.042373106 0.65321159
-0.31521454 -0.041500669 0.65515107
-0.30621526 -0.043420613 0.65454179
-0.29123616 -0.04704541 0.65522325
-0.28197035 -0.047179647 0.65486628
-0.27417392 -0.048963297 0.65530574
-0.26574028 -0.04781631 0.6561287
-0.25468981 -0.047911093 0.65655142
-0.24638091 -0.048213862 0.65585667
-0.23520657 -0.048589744 0.65553826
-0.22433847 -0.048427887 0.65601486
-0.21246472 -0.04659804 0.65477055
-0.20629241 -0.046001036 0.65590507
-0.19463345 -0.044324141 0.65432346
-0.18609937 -0.041776281 0.6516543
-0.17390057 -0.042283759 0.65212256
-0.16374201 -0.042476926 0.65488225
-0.15469132 -0.043650441 0.65362269
-0.14453162 -0.045377109 0.65443492
-0.13543196 -0.04598039 0.65516764
-0.12574971 -0.04649936 0.65589201
-0.11570251 -0.046249673 0.65527433
-0.10259318 -0.048264842 0.65602553
-0.098077476 -0.047216356 0.65396786
-0.086731277 -0.04846641 0.65642947
-0.074202433 -0.049357861 0.65577435
-0.35380256 -0.039379593 0.65754557
-0.34351104 -0.03893508 0.65466619
-0.33439067 -0.037772458 0.65475667
-0.3257381 -0.037138462 0.65557474
-0.31563795 -0.036128033 0.65479732
-0.3049998 -0.035534963 0.65470111
-0.29507425 -0.034993526 0.6543358
-0.28486228 -0.033927307 0.65554827
-0.2750797 -0.033797629 0.65457439
-0.26532498 -0.033127476 0.65498632
-0.25385866 -0.033044696 0.6542595
-0.24498469 -0.033144087 0.6547519
-0.23503694 -0.033548441 0.65542161
-0.22468549 -0.034431808 0.65465558
-0.2143321 -0.034264546 0.65539271
-0.20521799 -0.03426028 0.65558255
-0.19588801 -0.035454124 0.65515059
-0.18520814 -0.036489706 0.65394205
-0.17453966 -0.037174512 0.65461588
-0.16528551 -0.037732098 0.65460402
-0.15695313 -0.037802383 0.65582496
-0.14694105 -0.039031181 0.65921432
-0.13356972 -0.039356649 0.65854013
-0.27476186 -0.029434443 0.65997553
-0.26373956 -0.02896291 0.65774655
-0.25279871 -0.02854372 0.65640479
-0.2489118 -0.028672993 0.65999109
-0.23557791 -0.029012227 0.65558207
-0.22702739 -0.029099226 0.65599185
-0.21890074 -0.029586539 0.65374994
-0.42314306 -0.071272016 0.66128284
-0.4136551 -0.071705028 0.66760039
-0.40449682 -0.072760217 0.66399986
-0.39474392 -0.071215257 0.66554666
-0.3840034 -0.072203398 0.66299331
-0.37547112 -0.071064264 0.66384959
-0.11267217 -0.072546244 0.66790855
-0.10437521 -0.070674241 0.66951573
-0.094339304 -0.072076596 0.66332155
-0.084964469 -0.071270868 0.66515952
-0.078774154 -0.071762383 0.66493493
-0.42244592 -0.063928768 0.66587842
-0.41371727 -0.066495448 0.6649906
-0.40583184 -0.067701094 0.6657989
-0.39585358 -0.067640193 0.66487712
-0.3851099 -0.067222632 0.6646257
-0.37560943 -0.065411262 0.66447395
-0.36471435 -0.063654758 0.66459334
-0.35571507 -0.063184254 0.6644702
-0.34749594 -0.06212933 0.66371113
-0.33603421 -0.061297506 0.66584957
-0.32392627 -0.060311735 0.66071606
-0.15213759 -0.061833281 0.6655786
-0.14304595 -0.060997076 0.66295612
-0.1342033 -0.062571302 0.66475815
-0.12512468 -0.063485183 0.66489488
-0.11444949 -0.065622255 0.66439223
-0.10597909 -0.066919051 0.66536176
-0.094995998 -0.067747965 0.66571993
-0.084712453 -0.067301609 0.66466993
-0.07629139 -0.066274628 0.66424841
-0.066746309 -0.064799659 0.6664204
-0.42333964 -0.056727376 0.66511363
-0.41463414 -0.053061247 0.66433972
-0.40705237 -0.0535185 0.66523653
-0.39602271 -0.052425396 0.66232997
-0.38683629 -0.051747538 0.6648246
-0.37554628 -0.051237643 0.66355795
-0.36359504 -0.059894711 0.66442156
-0.35454506 -0.058883592 0.66657561
-0.34492871 -0.057502594 0.66343051
-0.33558321 -0.056524158 0.66433257
-0.32572967 -0.054889746 0.66450548
-0.3148331 -0.052430954 0.66467208
-0.30593699 -0.052818749 0.66413879
-0.29394886 -0.051593941 0.66449267
-0.28432146 -0.051988307 0.66378647
-0.27290803 -0.052798375 0.66318685
-0.26658669 -0.051089484 0.66299695
-0.25529242 -0.051168993 0.66415137
-0.24711138 -0.050330877 0.6618669
-0.23463944 -0.050882831 0.66409123
-0.22233285 -0.051611423 0.66472524
-0.21420811 -0.05155566 0.66383988
-0.20589028 -0.05197379 0.66443551
-0.19510862 -0.052578278 0.66416359
-0.18438515 -0.053334426 0.66523612
-0.17523983 -0.053050213 0.66477448
-0.1648684 -0.054942425 0.66396445
-0.15467267 -0.05577476 0.66551942
-0.14633341 -0.058008414 0.66388518
-0.13440229 -0.058261912 0.66588563
-0.1269073 -0.056752462 0.6653195
-0.1162573 -0.051225007 0.66283673
-0.10540874 -0.051794138 0.66416919
-0.095288128 -0.051911291 0.66442984
-0.084593534 -0.052928973 0.66416818
-0.075223811 -0.055298802 0.66573244
-0.066045053 -0.052420199 0.66515684
-0.41491994 -0.049329583 0.66548949
-0.40457925 -0.048360273 0.66521794
-0.39437914 -0.047642142 0.66479987
-0.38571414 -0.046203021 0.66478193
-0.37420818 -0.044030383 0.66436255
-0.36477375 -0.043242659 0.66510582
-0.35725102 -0.042532679 0.66560596
-0.34509206 -0.041884217 0.66501164
-0.33657375 -0.042200834 0.66400367
-0.32491857 -0.042094141 0.66294128
-0.31504107 -0.041148365 0.66484964
-0.30390868 -0.047725633 0.66603184
-0.2942906 -0.04899456 0.66559571
-0.28521657 -0.047872745 0.665667
-0.27439806 -0.048212335 0.66449839
-0.2654646 -0.046732076 0.66529679
-0.25426003 -0.046262175 0.66576761
-0.2448189 -0.046549793 0.66598028
-0.23506588 -0.04711597 0.66594481
-0.22490487 -0.047700599 0.66470259
-0.21558332 -0.047433913 0.66569698
-0.20433794 -0.048270632 0.66525918
-0.19675544 -0.048799913 0.66665435
-0.18506478 -0.047980387 0.66522014
-0.17543699 -0.045312397 0.66305196
-0.16598734 -0.04179864 0.66377223
-0.15401872 -0.042571034 0.66357177
-0.14448757 -0.042941947 0.66504282
-0.13420299 -0.044347018 0.66534144
-0.12524517 -0.045887075 0.66567487
-0.11612157 -0.045752447 0.66510856
-0.10543845 -0.047378603 0.66646439
-0.096535392 -0.047985394 0.6663447
-0.084570833 -0.04862598 0.66702801
-0.075675234 -0.047942922 0.66643518
-0.36133498 -0.038632147 0.66913092
-0.35443002 -0.038865916 0.66640824
-0.34407729 -0.037991803 0.66508329
-0.33448601 -0.03648825 0.66582668
-0.32462066 -0.035040405 0.66495669
-0.3144902 -0.034398004 0.66445518
-0.30466115 -0.033556789 0.66434759
-0.29483572 -0.033773094 0.66418827
-0.28422454 -0.033048425 0.66362619
-0.27439812 -0.032089606 0.6638574
-0.26422009 -0.031689778 0.66435874
-0.25549376 -0.032408621 0.66208994
-0.24534805 -0.032062877 0.66448545
-0.23416275 -0.032141414 0.6638763
-0.22426261 -0.032099985 0.66497678
-0.21459199 -0.033229269 0.66422105
-0.20589633 -0.03390798 0.66375214
-0.19464554 -0.03418738 0.66462505
-0.18458073 -0.035053786 0.66389692
-0.17565101 -0.035861455 0.66510201
-0.16584796 -0.036257546 0.66473955
-0.15415634 -0.037648924 0.66433507
-0.14388935 -0.038608581 0.66817749
-0.13400382 -0.038648456 0.66575998
-0.12529117 -0.039706975 0.66932517
-0.29270405 -0.029171288 0.66698718
-0.28419241 -0.028602922 0.66603631
-0.27551872 -0.028945148 0.66774631
-0.26525134 -0.028227797 0.66604185
-0.25440118 -0.027781371 0.66565478
-0.24454132 -0.027767478 0.66554993
-0.2346427 -0.02829005 0.66481668
-0.22585799 -0.028242081 0.66458917
-0.21553247 -0.028565532 0.66714787
-0.20795369 -0.028560167 0.66510588
-0.19062001 -0.029745936 0.66812152
-0.1829921 -0.028913945 0.66724658
-0.41389641 -0.070746422 0.67154717
-0.40142074 -0.071055532 0.67577487
-0.3976801 -0.070821166 0.67666793
-0.38668936 -0.071041584 0.6726737
-0.10252646 -0.070556402 0.67499977
-0.091839254 -0.0704723 0.67260855
-0.086037889 -0.071752444 0.67301524
-0.072612233 -0.070916235 0.67147112
-0.42276922 -0.062457044 0.67513752
-0.41652095 -0.064676307 0.67516965
-0.40562776 -0.06630902 0.67356825
-0.39478356 -0.06599766 0.67432839
-0.38472411 -0.064551465 0.6754477
-0.37473288 -0.063396633 0.67466182
-0.36601263 -0.062373295 0.67438698
-0.35528508 -0.062667899 0.67590439
-0.34527105 -0.061297309 0.67217511
-0.33275154 -0.061036468 0.67386007
-0.16524719 -0.060609818 0.670084
-0.14773569 -0.060760915 0.67436123
-0.13502857 -0.0612862 0.6732735
-0.12424316 -0.062280476 0.67595208
-0.11515293 -0.063454598 0.6757167
-0.10452634 -0.065122001 0.6757766
-0.095561393 -0.066826783 0.67499274
-0.084391437 -0.066520423 0.67510825
-0.074761577 -0.063402824 0.67442209
-0.067471214 -0.064833306 0.67414731
-0.42288858 -0.053781047 0.67535931
-0.41536102 -0.055690013 0.67416018
-0.40434539 -0.053025812 0.67560482
-0.39782965 -0.051489502 0.67541826
-0.38738656 -0.050777674 0.67810798
-0.37279597 -0.059475105 0.67875749
-0.36294541 -0.058330555 0.67601264
-0.35424647 -0.057457902 0.67511123
-0.34522754 -0.056406714 0.67554301
-0.33428907 -0.053730719 0.67522079
-0.32511345 -0.05394505 0.67365003
-0.3159861 -0.053472005 0.67462546
-0.30556008 -0.052031152 0.67358625
-0.29625383 -0.052089527 0.6732325
-0.2859357 -0.051872 0.67209822
-0.27664924 -0.051785678 0.67353356
-0.26612121 -0.051320851 0.67170364
-0.25500596 -0.051566899 0.67143881
-0.24559297 -0.052383542 0.67158329
-0.23601528 -0.051659267 0.67085981
-0.22227913 -0.050981164 0.67369241
-0.21871273 -0.054673076 0.671166
-0.20483875 -0.051497418 0.67367226
-0.19399677 -0.052458175 0.6735701
-0.1846191 -0.0513862 0.67465001
-0.17413481 -0.052434757 0.67525136
-0.16513519 -0.053386852 0.6738553
-0.15536685 -0.054406166 0.67532247
-0.14497611 -0.056201734 0.67529666
-0.13549902 -0.057593551 0.67680413
-0.12600175 -0.057345279 0.67638046
-0.11653346 -0.057192855 0.67452955
-0.10579896 -0.052890688 0.67589641
-0.095139816 -0.051379129 0.67387879
-0.08347176 -0.05205784 0.67576396
-0.075894162 -0.055270132 0.6746977
-0.06531892 -0.055592518 0.67662793
-0.4200713 -0.04792285 0.67741197
-0.41418743 -0.047912259 0.67399007
-0.40577966 -0.046974022 0.67546272
-0.3952359 -0.046011522 0.67512012
-0.38515398 -0.045022223 0.67498225
-0.37483045 -0.043366369 0.67424113
-0.36482587 -0.042486697 0.67467284
-0.35548839 -0.042414427 0.67418289
-0.34645158 -0.041262358 0.67560935
-0.33829623 -0.042746067 0.67676842
-0.32329246 -0.048138652 0.67658955
-0.31424204 -0.048665047 0.67450607
-0.30509874 -0.047933549 0.67499608
-0.29633844 -0.04725942 0.67519164
-0.28506514 -0.046539545 0.67655247
-0.27532622 -0.045923375 0.6752094
-0.265093 -0.045576535 0.67496079
-0.25525498 -0.045744419 0.67398274
-0.24526493 -0.04480223 0.67572212
-0.2351421 -0.045265749 0.67440814
-0.22528699 -0.045223672 0.6753785
-0.2146109 -0.046718076 0.67479897
-0.20439209 -0.046577744 0.67642629
-0.19445258 -0.047963779 0.67414373
-0.18427432 -0.047831383 0.67615294
-0.17559946 -0.047281474 0.67727286
-0.16381073 -0.046819314 0.67548811
-0.15446351 -0.044556137 0.67378783
-0.1442951 -0.041602459 0.67481542
-0.13469136 -0.042830069 0.67524838
-0.12492743 -0.044434179 0.67601442
-0.11538093 -0.045301523 0.67476594
-0.10474901 -0.04690136 0.67507195
-0.095126629 -0.047176622 0.6753583
-0.084939718 -0.047092885 0.67509764
-0.076466091 -0.047912531 0.67610139
-0.068585455 -0.048378605 0.67457324
-0.3647005 -0.038756166 0.67726481
-0.35499957 -0.038184326 0.67483526
-0.34425637 -0.036346268 0.67476338
-0.33557603 -0.035471283 0.67525887
-0.32511944 -0.033505764 0.67509675
-0.31499976 -0.033184696 0.67402428
-0.30586627 -0.032836054 0.67432457
-0.29521209 -0.032119457 0.67430818
-0.28400573 -0.032085381 0.67466152
-0.27598903 -0.031324554 0.67407429
-0.26454321 -0.03187868 0.67439932
-0.25481966 -0.032477926 0.67591035
-0.24396257 -0.032285422 0.67501998
-0.23511408 -0.032420754 0.67427361
-0.22255337 -0.031838857 0.67606455
-0.21557003 -0.031499274 0.67345172
-0.20456557 -0.032082565 0.67319989
-0.19507109 -0.032588154 0.67475569
-0.1852776 -0.03344683 0.67413872
-0.17389375 -0.03419625 0.6743499
-0.16423421 -0.035372268 0.67465425
-0.15496475 -0.036526311 0.67506391
-0.14448802 -0.037727598 0.67484933
-0.13791399 -0.037923384 0.67529607
-0.12585786 -0.038905047 0.6754545
-0.11631603 -0.039104134 0.67539573
-0.32382035 -0.029432759 0.67336714
-0.3157621 -0.02849482 0.67684257
-0.30493188 -0.028529078 0.67685658
-0.29436412 -0.028183173 0.67509758
-0.28445914 -0.027885146 0.67543167
-0.27431938 -0.027584257 0.67502421
-0.26452008 -0.026521718 0.67544436
-0.25481814 -0.026736317 0.67474329
-0.24501397 -0.026415335 0.6753183
-0.23514235 -0.026640182 0.6749543
-0.22494839 -0.026970023 0.67507136
-0.21426873 -0.027418278 0.67575914
-0.20428161 -0.028060334 0.67438871
-0.1954823 -0.027574783 0.675596
-0.18606827 -0.028416466 0.67792743
-0.17510663 -0.028680185 0.6750592
-0.16077763 -0.028521627 0.67950714
-0.41847724 -0.071736455 0.68135494
-0.40708628 -0.070899904 0.68215191
-0.39201635 -0.070235968 0.6816408
-0.09941332 -0.072910428 0.68113124
-0.084548324 -0.070069075 0.68483239
-0.42261446 -0.063299984 0.68474931
-0.41504192 -0.063531458 0.68536752
-0.40400663 -0.065113649 0.68461466
-0.39473674 -0.06398759 0.68612152
-0.38624433 -0.063286796 0.68447047
-0.37713662 -0.062461037 0.68407661
-0.36517054 -0.062257171 0.68530726
-0.35669163 -0.061043233 0.68263221
-0.34724006 -0.060685277 0.68829417
-0.15187769 -0.060979366 0.68340456
-0.13676019 -0.061580438 0.68364859
-0.12415233 -0.061803736 0.68583506
-0.11386871 -0.063095935 0.68494219
-0.10442828 -0.063689493 0.6851353
-0.094891548 -0.065114796 0.68565702
-0.085848644 -0.065815881 0.6842401
-0.07561262 -0.062897943 0.68465596
-0.068724878 -0.062535882 0.68306285
-0.42250916 -0.054165501 0.68522686
-0.41516733 -0.056017682 0.68482208
-0.4077374 -0.053420197 0.68288672
-0.39702004 -0.050027609 0.68998504
-0.38350376 -0.059414007 0.68636417
-0.37545124 -0.058754526 0.68582112
-0.36535123 -0.057626072 0.68499655
-0.35456714 -0.055582404 0.68465877
-0.34366617 -0.053767182 0.68596125
-0.33566695 -0.053438503 0.68481964
-0.32516479 -0.052424856 0.68558568
-0.31491256 -0.051461957 0.68560213
-0.30528712 -0.051727634 0.68289137
-0.29644895 -0.05112201 0.68615752
-0.28797007 -0.050379634 0.68517959
-0.21865459 -0.051168919 0.68527377
-0.2052146 -0.052342057 0.68505025
-0.19370785 -0.052177548 0.68323195
-0.18325928 -0.051625371 0.6815505
-0.17549951 -0.051976573 0.68521041
-0.1650117 -0.051924471 0.68551952
-0.15468727 -0.053548738 0.68473434
-0.14573213 -0.054295138 0.6851269
-0.13460281 -0.056517657 0.68383223
-0.12598976 -0.057610787 0.68497825
-0.11717089 -0.057482604 0.68568099
-0.10772721 -0.057859935 0.68326223
-0.095561765 -0.056403358 0.68587703
-0.081365302 -0.056115258 0.68210298
-0.076075613 -0.054303046 0.68533903
-0.067304 -0.055844508 0.68314695
-0.42202038 -0.048418842 0.683483
-0.41389889 -0.046385258 0.68601882
-0.4043138 -0.045446102 0.68611145
-0.39506724 -0.044055518 0.68480408
-0.38565743 -0.043108311 0.68521148
-0.37553442 -0.043068945 0.68515384
-0.36570296 -0.042684719 0.68526286
-0.35889012 -0.040491372 0.68576932
-0.34967557 -0.041068036 0.68538362
-0.33450812 -0.047536738 0.68732059
-0.3233811 -0.047858525 0.68604088
-0.3137131 -0.04619506 0.68567938
-0.30461001 -0.046131779 0.68597239
-0.29535484 -0.045289412 0.6849668
-0.28408945 -0.044899527 0.68483096
-0.27535647 -0.044619005 0.68546778
-0.2652784 -0.043633364 0.68447089
-0.25477359 -0.043266054 0.68533206
-0.24523489 -0.042568073 0.68621135
-0.23535067 -0.043703798 0.68558651
-0.22499645 -0.044638317 0.68387002
-0.21445026 -0.044212606 0.68574184
-0.20540828 -0.045634564 0.68424082
-0.19524415 -0.045882653 0.6854763
-0.18534414 -0.045986559 0.68609673
-0.1756921 -0.04747615 0.6859439
-0.16565441 -0.048237037 0.68583614
-0.15634347 -0.047540605 0.6865499
-0.14424646 -0.041744087 0.68427014
-0.13562953 -0.041797996 0.68590337
-0.1244442 -0.042277303 0.68462914
-0.1150266 -0.044276837 0.68523425
-0.10510562 -0.044805709 0.68536043
-0.095385239 -0.045994423 0.68569398
-0.085480228 -0.046189412 0.68585664
-0.075370491 -0.046363153 0.68780887
-0.065790571 -0.047739197 0.68523699
-0.38264656 -0.039530952 0.68686533
-0.37489611 -0.038811713 0.68636274
-0.36453199 -0.037730306 0.68582177
-0.35420191 -0.036372323 0.68436116
-0.3444865 -0.034754355 0.68554395
-0.33502045 -0.033494703 0.68425024
-0.32483679 -0.032355636 0.68447137
-0.31571043 -0.031953536 0.68399101
-0.30621693 -0.031501852 0.68426907
-0.29473874 -0.031425152 0.68517822
-0.28374055 -0.032157332 0.68359208
-0.27237165 -0.037679456 0.6858604
-0.26534748 -0.035279512 0.68425059
-0.25615692 -0.036556169 0.68576747
-0.24484648 -0.037241906 0.68686897
-0.23507909 -0.038656849 0.68870193
-0.22399366 -0.036029059 0.68437701
-0.21307556 -0.03118068 0.68419039
-0.20426178 -0.031083178 0.68298954
-0.19596285 -0.031838872 0.68342298
-0.18430969 -0.031964675 0.68475157
-0.1752211 -0.033331938 0.68323511
-0.16567212 -0.034206308 0.68528926
-0.15505415 -0.035470981 0.68429148
-0.14473841 -0.03557279 0.68554419
-0.13501672 -0.037671756 0.68609452
-0.12600924 -0.036809273 0.68539906
-0.1154912 -0.039247461 0.68375653
-0.10549515 -0.038445227 0.68692064
-0.33310914 -0.029780462 0.68431705
-0.3228803 -0.028898539 0.68510723
-0.31481418 -0.028086616 0.68561745
-0.30425709 -0.027080793 0.6857155
-0.29540199 -0.026692042 0.68562561
-0.28538278 -0.026384799 0.68490213
-0.27534369 -0.025809469 0.68608189
-0.26524642 -0.025157595 0.68509597
-0.25510991 -0.024248837 0.68565851
-0.24454558 -0.02389051 0.6865592
-0.23528357 -0.024966 0.68547606
-0.22570498 -0.025741559 0.68450356
-0.21525781 -0.026172228 0.68549156
-0.20472226 -0.026633671 0.68514764
-0.19583786 -0.026948826 0.68505985
-0.18516244 -0.027523128 0.68566984
-0.17470114 -0.027473766 0.68530875
-0.16358262 -0.028015831 0.68673038
-0.15883622 -0.028248873 0.68435568
-0.23483402 -0.01941701 0.68766123
-0.099155709 -0.070083737 0.69498229
-0.42425701 -0.061041415 0.6912601
-0.41369963 -0.063358814 0.69450414
-0.40500894 -0.063329145 0.69516557
-0.39440238 -0.062393524 0.69424367
-0.38478777 -0.062122099 0.6938203
-0.37645742 -0.062395141 0.6931895
-0.36444959 -0.06082499 0.69483232
-0.13851427 -0.061348915 0.69671893
-0.12475123 -0.062818803 0.69298571
-0.11408329 -0.062717788 0.69351381
-0.1048432 -0.062467601 0.6946246
-0.094863802 -0.06391678 0.69359308
-0.085329011 -0.063520499 0.69471556
-0.075513206 -0.062713437 0.6941604
-0.068362445 -0.061369002 0.69471407
-0.42225567 -0.053746864 0.69399583
-0.41569892 -0.056738723 0.69407856
-0.40811038 -0.053763449 0.69398719
-0.39638171 -0.059051767 0.69772458
-0.38482532 -0.058954503 0.69623017
-0.37456739 -0.056729496 0.69621325
-0.36480021 -0.055420332 0.69499916
-0.35614714 -0.054187305 0.6951744
-0.34590858 -0.053285174 0.69333631
-0.33610025 -0.052813847 0.69512975
-0.32816666 -0.052380085 0.69605875
-0.31886446 -0.051613808 0.69047689
-0.19167836 -0.050025344 0.69897038
-0.17903331 -0.051267028 0.69653332
-0.16398428 -0.05222996 0.69512749
-0.15525939 -0.052380309 0.69399542
-0.14461803 -0.053441513 0.69401723
-0.1354344 -0.055500541 0.69495428
-0.1260037 -0.055776596 0.6953665
-0.11661181 -0.058182318 0.69472462
-0.10629396 -0.057996403 0.69609779
-0.095822833 -0.059307635 0.6958043
-0.083297558 -0.05544208 0.69407541
-0.075676978 -0.054451879 0.69540292
-0.066816278 -0.055789251 0.6981439
-0.42236075 -0.047214806 0.69441277
-0.41407979 -0.044943966 0.69417453
-0.40553167 -0.043830376 0.69522649
-0.39471331 -0.042452518 0.69549149
-0.3859525 -0.042025227 0.69559246
-0.37435123 -0.041536551 0.69495642
-0.36144853 -0.042461574 0.69987828
-0.35699987 -0.040976346 0.69111234
-0.34468192 -0.047720388 0.69735956
-0.33498564 -0.048136443 0.69489723
-0.32586488 -0.046651632 0.69521052
-0.31479084 -0.04530102 0.69575113
-0.30493179 -0.044242788 0.69462109
-0.2948797 -0.043627754 0.69580388
-0.28561604 -0.042938035 0.69484216
-0.27524444 -0.042327698 0.69484574
-0.26545745 -0.041975845 0.69338077
-0.25635016 -0.042186216 0.69571066
-0.24480811 -0.041956086 0.69412148
-0.23451646 -0.042353246 0.69578254
-0.22483954 -0.042184617 0.69449013
-0.21496972 -0.043136656 0.69495016
-0.20516072 -0.043207902 0.69556904
-0.19540742 -0.044265419 0.69461989
-0.18528473 -0.045305975 0.69512212
-0.17549053 -0.046020094 0.69446164
-0.16477256 -0.047367819 0.69436646
-0.15636003 -0.047463484 0.69537163
-0.14553072 -0.048387192 0.69674712
-0.13366029 -0.041162878 0.69232178
-0.12450495 -0.042116214 0.69411469
-0.11497859 -0.041948859 0.69583654
-0.10603725 -0.043376885 0.69540548
-0.0952136 -0.044144999 0.69487715
-0.085396849 -0.043980841 0.69528407
-0.076334469 -0.045546509 0.69594777
-0.067238845 -0.044051804 0.69732535
-0.40352359 -0.038354598 0.6959241
-0.39288771 -0.039568596 0.69377923
-0.38484767 -0.038919993 0.6948092
-0.37434772 -0.037838478 0.69611824
-0.36475751 -0.036422499 0.69535124
-0.35521251 -0.034516096 0.69523287
-0.34506214 -0.033446208 0.69416237
-0.33573365 -0.032506257 0.69549608
-0.32521874 -0.032225933 0.69455284
-0.31430385 -0.032313682 0.69336146
-0.30264416 -0.032862067 0.6964246
-0.29112089 -0.037885237 0.69492108
-0.28324708 -0.035861988 0.69620973
-0.27389246 -0.038491383 0.69682384
-0.26431078 -0.037794445 0.69637311
-0.25568387 -0.038009901 0.69711435
-0.24551122 -0.038231958 0.69541621
-0.233877 -0.03758594 0.69662523
-0.22428302 -0.038017005 0.69496191
-0.21403211 -0.038971692 0.69530618
-0.20289211 -0.034928232 0.69510776
-0.19436657 -0.034421057 0.6943717
-0.1865357 -0.031105658 0.69446057
-0.17429559 -0.031830456 0.69354463
-0.16485944 -0.0320943 0.69497669
-0.15565652 -0.033924181 0.69438571
-0.14521345 -0.035035655 0.6944676
-0.13527109 -0.035725065 0.69525677
-0.12593471 -0.035984829 0.69453794
-0.11612405 -0.037815299 0.69560176
-0.10561121 -0.038298432 0.69642448
-0.092677817 -0.038118228 0.69732654
-0.082501233 -0.039286762 0.69674528
-0.34448004 -0.029984832 0.69714677
-0.33408982 -0.028857082 0.69443178
-0.32527813 -0.027874865 0.69508094
-0.31541163 -0.027273994 0.69587433
-0.30490839 -0.025510149 0.69554383
-0.29641777 -0.02490514 0.69505847
-0.28594121 -0.024187632 0.69487917
-0.27473933 -0.023934191 0.69520193
-0.26480547 -0.022438955 0.69486052
-0.25557858 -0.023227531 0.69426125
-0.24448942 -0.022796934 0.69548172
-0.23472434 -0.022580884 0.69480312
-0.22554599 -0.023695316 0.69493884
-0.21481422 -0.024193579 0.69543499
-0.20523725 -0.025062075 0.69481176
-0.19431531 -0.026342759 0.69471711
-0.18542904 -0.026077956 0.69571769
-0.1753888 -0.026824011 0.69523948
-0.16556714 -0.027796417 0.69591218
-0.15776473 -0.027577721 0.69573021
-0.14331059 -0.027760832 0.69683534
-0.13984782 -0.028690644 0.69432914
-0.29207647 -0.019869737 0.69734383
-0.28016329 -0.019688189 0.69883955
-0.2757892 -0.01895836 0.69845307
-0.2603291 -0.01963836 0.696854
-0.25327444 -0.018627873 0.69744611
-0.24673532 -0.018241746 0.69572783
-0.23632288 -0.018703947 0.69714934
-0.22613603 -0.018668637 0.69026899
-0.21415731 -0.019497946 0.6971519
-0.20979702 -0.019890249 0.69890344
-0.18969798 -0.019665658 0.69979274
-0.41494265 -0.061722457 0.70320821
-0.40533623 -0.062010627 0.70492214
-0.39602691 -0.061620004 0.70558262
-0.38703522 -0.062285729 0.7027545
-0.37723917 -0.061845005 0.70574057
-0.36180618 -0.060342073 0.70280707
-0.12312621 -0.060723782 0.70210743
-0.113075 -0.062040348 0.70424765
-0.10419602 -0.061631713 0.70357192
-0.095615208 -0.062745728 0.70479822
-0.08539822 -0.061947323 0.70599622
-0.076667435 -0.062163558 0.70253491
-0.06470722 -0.060548276 0.70028925
-0.42267618 -0.05529448 0.70423204
-0.41573051 -0.055729203 0.70434207
-0.40499678 -0.057722263 0.70572013
-0.3950133 -0.058419131 0.70564425
-0.38514498 -0.056597721 0.70488942
-0.37563622 -0.055896338 0.7047441
-0.3656159 -0.054393295 0.70477766
-0.35401997 -0.052443709 0.70457393
-0.34498534 -0.052414343 0.70377439
-0.33711505 -0.052354515 0.70468831
-0.32556197 -0.05103771 0.70273739
-0.16498673 -0.050984651 0.70222282
-0.1530471 -0.051288549 0.70384502
-0.14299646 -0.053059842 0.70455074
-0.13496652 -0.053638332 0.70513999
-0.12508407 -0.055378266 0.70465004
-0.11536947 -0.056709401 0.7053991
-0.10577389 -0.056584399 0.70720989
-0.094973728 -0.057849057 0.7054826
-0.083998993 -0.056590863 0.70444894
-0.075589575 -0.055354577 0.70350337
-0.069990218 -0.053117275 0.70370674
-0.42144996 -0.046964422 0.7052809
-0.41464236 -0.044423319 0.70453662
-0.40521073 -0.042963956 0.70387942
-0.39457762 -0.042734548 0.70463938
-0.38564828 -0.041844666 0.70393878
-0.37338561 -0.04578571 0.7049073
-0.36158979 -0.048590258 0.70869285
-0.35449949 -0.048321158 0.70902944
-0.34610707 -0.04737629 0.70526856
-0.33502847 -0.04626146 0.7044335
-0.32552439 -0.044860408 0.70463407
-0.31536421 -0.043858167 0.70339155
-0.30549797 -0.042939603 0.70360363
-0.29461762 -0.04233446 0.70476037
-0.28517678 -0.042477991 0.70390296
-0.27458039 -0.040923383 0.70437133
-0.26729098 -0.04217726 0.70198566
-0.2557146 -0.04082787 0.70298761
-0.24551424 -0.041451454 0.70418441
-0.23454852 -0.041384175 0.70364571
-0.22335166 -0.040926427 0.70527011
-0.2141576 -0.041628271 0.70486516
-0.20577894 -0.042042479 0.70392525
-0.19503951 -0.042080909 0.70541054
-0.1848774 -0.043074254 0.7044701
-0.17445652 -0.04443422 0.70435101
-0.16587201 -0.046885002 0.70469987
-0.15603413 -0.046471387 0.70495653
-0.14455694 -0.047757048 0.7060473
-0.1352865 -0.048621941 0.70611554
-0.12336609 -0.04306956 0.70463109
-0.11217942 -0.041661989 0.70397961
-0.10502981 -0.042443555 0.70358557
-0.094008625 -0.043307394 0.70452881
-0.084278032 -0.045230266 0.70418137
-0.075001024 -0.044889681 0.70429832
-0.06664779 -0.047775663 0.70479989
-0.41527551 -0.037459157 0.70788252
-0.40497419 -0.037839733 0.70423228
-0.39600593 -0.036584392 0.70589918
-0.38481525 -0.036588259 0.70537817
-0.37448886 -0.034300715 0.70541835
-0.36486408 -0.034305103 0.7043317
-0.35448509 -0.033106342 0.70454162
-0.34569868 -0.032151934 0.70366317
-0.33681679 -0.031798407 0.70352423
-0.3265515 -0.035898432 0.70700693
-0.3149668 -0.034099713 0.7066589
-0.30484703 -0.038316015 0.70504069
-0.2956942 -0.03827858 0.70523465
-0.28489906 -0.038100518 0.70624202
-0.27586889 -0.037127342 0.70681238
-0.26633012 -0.037073843 0.7064594
-0.25458023 -0.036935236 0.70554137
-0.24544023 -0.036642816 0.70501387
-0.23580937 -0.036989395 0.70476335
-0.22454016 -0.03770579 0.70625907
-0.2149794 -0.037350003 0.70644814
-0.2048175 -0.038925048 0.70633054
-0.19593893 -0.038858823 0.70460552
-0.18517944 -0.03734415 0.70434147
-0.17409691 -0.037638951 0.70730776
-0.16571166 -0.030885518 0.70414311
-0.1548201 -0.032371473 0.70549607
-0.1455382 -0.033294223 0.7045545
-0.13443285 -0.034803417 0.70500594
-0.12586771 -0.035544567 0.70478261
-0.11473254 -0.036708698 0.70545775
-0.10454309 -0.036727514 0.70501512
-0.095073275 -0.035711445 0.70735055
-0.085301399 -0.037399579 0.70688748
-0.077696711 -0.037700489 0.70499516
-0.068708777 -0.039017677 0.70736855
-0.37881929 -0.029769883 0.70809305
-0.36422071 -0.028891996 0.70742303
-0.35560873 -0.028006043 0.70759314
-0.34427154 -0.027352706 0.70615965
-0.33452025 -0.026735678 0.70503539
-0.32471228 -0.02581636 0.70574129
-0.31492385 -0.0242116 0.7049762
-0.30561987 -0.02366267 0.70569754
-0.2956138 -0.023254121 0.70499223
-0.28640386 -0.023387961 0.70346028
-0.27531263 -0.022177244 0.70518219
-0.26410306 -0.023111183 0.70480222
-0.25490516 -0.022920454 0.70405692
-0.24320923 -0.021535574 0.70380765
-0.23420756 -0.023018347 0.70400387
-0.22435151 -0.022983978 0.70536238
-0.21469079 -0.023136666 0.70442778
