# .PCD v0.7 - Point Cloud Data file format
VERSION 0.7
FIELDS x y z
SIZE 4 4 4
TYPE F F F
COUNT 1 1 1
WIDTH 1387
HEIGHT 1
VIEWPOINT 0 0 0 1 0 0 0
POINTS 1387
DATA ascii
0.27401638 -0.21773875 0.37088624
0.28430039 -0.21220675 0.37105823
0.29786512 -0.21419477 0.37188751
0.30439818 -0.21558779 0.37250903
0.31648386 -0.2149515 0.37320364
0.32612965 -0.21590346 0.37423983
0.33580771 -0.21459581 0.37501347
0.34292492 -0.21614054 0.37469122
0.35451844 -0.21471852 0.37599644
0.36408892 -0.21642023 0.37633494
0.375422 -0.21619402 0.37683555
0.38431937 -0.21498622 0.37451854
0.39363202 -0.21618326 0.37070289
-0.009244591 -0.20576727 0.37058502
0.0063084951 -0.20586871 0.37435964
0.015845502 -0.20638928 0.37410662
0.025904967 -0.20470482 0.37458628
0.035598401 -0.20382686 0.37449846
0.044541046 -0.20597778 0.37586805
0.055793431 -0.20442861 0.37408707
0.064851865 -0.2059423 0.37521282
0.073993988 -0.2033871 0.37343439
0.085341766 -0.20515677 0.37300587
0.094805263 -0.20452803 0.37282133
0.10484298 -0.20579071 0.3718431
0.11510188 -0.204836 0.37231675
0.12334158 -0.20372026 0.37170535
0.13235612 -0.20556147 0.3714838
0.14368504 -0.20569925 0.371225
0.15722863 -0.20416935 0.37191388
0.16522808 -0.20538323 0.37144709
0.1710604 -0.20250797 0.37264109
0.18457615 -0.20414591 0.37220958
0.19399416 -0.20244667 0.37200305
0.20896621 -0.20524435 0.37145075
0.2151583 -0.2044809 0.37145099
0.2238625 -0.20149139 0.37193209
0.23577654 -0.20449717 0.3714281
0.24601945 -0.20631547 0.37143555
0.25487849 -0.20681235 0.37085789
0.26541904 -0.20524691 0.37132922
0.27596295 -0.20602192 0.37206677
0.28418791 -0.20668115 0.3713299
0.29612517 -0.20357537 0.3716898
0.30418241 -0.20425433 0.37330386
0.31509477 -0.20602098 0.37302348
0.32637954 -0.20458245 0.37539154
0.33559003 -0.20507565 0.37555727
0.34396082 -0.20606616 0.37513441
0.35374972 -0.20542273 0.37598282
0.36416349 -0.20542218 0.3762573
0.37488884 -0.2065471 0.37607914
0.38445762 -0.20515919 0.37453663
0.39402008 -0.20836984 0.37073049
0.0054910998 -0.19503562 0.37457839
0.016188448 -0.19531769 0.37388241
0.025014741 -0.19393627 0.37564188
0.035400607 -0.19535269 0.37498468
0.045444433 -0.19479105 0.37610504
0.055788603 -0.19504179 0.37478393
0.064036079 -0.19486554 0.37576666
0.0740567 -0.19648592 0.37501296
0.085238233 -0.1942229 0.37289742
0.094785944 -0.19566363 0.37332645
0.10476041 -0.1957791 0.37215388
0.11549482 -0.1921889 0.37236246
0.12432215 -0.19450587 0.37269229
0.13605213 -0.19407989 0.37236553
0.14428745 -0.19571389 0.37221137
0.15681081 -0.19490632 0.3720279
0.16539921 -0.19272417 0.37258396
0.17462046 -0.19456699 0.37227601
0.18478617 -0.19382578 0.3721447
0.19455475 -0.19387086 0.3722626
0.20638046 -0.19621842 0.37081084
0.21347769 -0.19466555 0.37230742
0.22637653 -0.19568855 0.37204406
0.23684648 -0.19193441 0.37254936
0.24586943 -0.19588464 0.37183258
0.25609183 -0.19521816 0.37198982
0.26469281 -0.1945276 0.37246555
0.27439803 -0.19520573 0.37207678
0.28588378 -0.19612335 0.37286404
0.29514959 -0.19439276 0.37289211
0.30436462 -0.19581793 0.37336567
0.31533954 -0.19557349 0.37330672
0.32594869 -0.19546646 0.3749153
0.33391055 -0.1948404 0.37544528
0.34386483 -0.19447947 0.37521347
0.3544623 -0.19529824 0.37556872
0.36332327 -0.19527428 0.37668628
0.37495646 -0.19554749 0.37612036
0.38317153 -0.19436365 0.37476599
0.39358598 -0.19713664 0.37045622
-0.0094910562 -0.18904454 0.37022042
0.0058608232 -0.18420288 0.37441987
0.015489394 -0.18525077 0.37357423
0.02471385 -0.18458377 0.37475979
0.035908069 -0.18446875 0.37457779
0.045853794 -0.18478577 0.37368137
0.056381065 -0.18577014 0.3751145
0.065425776 -0.18451229 0.37433547
0.074696213 -0.1867387 0.37459239
0.084773287 -0.18561876 0.37384614
0.094385505 -0.18531674 0.37364569
0.105208 -0.18553405 0.37313944
0.11651839 -0.18326181 0.37289992
0.12585108 -0.18514694 0.37257344
0.13455863 -0.18378437 0.37456021
0.1438321 -0.18546146 0.37314296
0.15570639 -0.18642095 0.37223551
0.16461602 -0.18463318 0.37272757
0.17498676 -0.1845084 0.3735154
0.18582076 -0.185396 0.37303135
0.19453526 -0.18409723 0.37339386
0.20706634 -0.18685736 0.37164861
0.21366756 -0.1856932 0.37382543
0.22569227 -0.18622616 0.37269759
0.23530655 -0.18515345 0.37330419
0.24731104 -0.18528914 0.37293881
0.25495824 -0.18487005 0.37325138
0.26480854 -0.18524826 0.37323678
0.27433744 -0.18591715 0.3731584
0.28547612 -0.18578403 0.37298328
0.29679495 -0.18637128 0.37227872
0.30526587 -0.1870227 0.37442422
0.31644905 -0.18513408 0.37455121
0.32606491 -0.18389088 0.37560189
0.33433637 -0.18512182 0.37599576
0.34454343 -0.18536194 0.37559509
0.35437161 -0.18490896 0.37582982
0.36389691 -0.18469885 0.3759692
0.37554216 -0.18453692 0.37632996
0.38309839 -0.18526506 0.37497821
0.39172056 -0.18542299 0.37108642
-0.0035046141 -0.17279281 0.37154511
0.0055473242 -0.17329255 0.3742657
0.015324386 -0.17573346 0.3736082
0.024446877 -0.17561652 0.37560451
0.034803566 -0.17493227 0.37550235
0.045343019 -0.17502594 0.37453327
0.056239307 -0.17564334 0.37462527
0.064194858 -0.17470621 0.37498769
0.074674517 -0.17604707 0.37622362
0.084671505 -0.17543834 0.3750692
0.093506806 -0.17395698 0.37531975
0.10414986 -0.17436919 0.37546104
0.11451425 -0.17443644 0.37475917
0.12587963 -0.17408834 0.37512004
0.13397218 -0.17445916 0.3743889
0.14569643 -0.17366764 0.37475967
0.15535651 -0.17580007 0.37381992
0.16401169 -0.17431878 0.37409651
0.17508428 -0.17531338 0.37418059
0.18614128 -0.17525923 0.37422562
0.19515972 -0.17492224 0.37499326
0.20397088 -0.17432147 0.37386277
0.21364318 -0.17552976 0.37418193
0.22543463 -0.17521757 0.37390992
0.23614977 -0.17593044 0.37400785
0.24472949 -0.17500576 0.373734
0.25514302 -0.17415208 0.37459368
0.26344872 -0.17462488 0.37474945
0.27450117 -0.17486736 0.37403899
0.28560179 -0.17542787 0.37459615
0.29494533 -0.17616126 0.37420502
0.30552691 -0.17629206 0.37477568
0.31555399 -0.175376 0.37542284
0.32545596 -0.17538245 0.37607604
0.33390057 -0.17571066 0.3762303
0.34363371 -0.17533284 0.37599429
0.35424045 -0.17477325 0.37667444
0.36586767 -0.1747468 0.37595785
0.37507489 -0.17504919 0.37603483
0.38551891 -0.17253368 0.37518397
0.39310408 -0.17406607 0.3707214
-0.0055841506 -0.16255739 0.37251508
0.0061435741 -0.16423821 0.37409157
0.015359025 -0.16554849 0.37411943
0.024754573 -0.1641345 0.3746126
0.034788258 -0.16504674 0.37384588
0.046109676 -0.16489233 0.37512586
0.055804133 -0.16438068 0.37403223
0.064975575 -0.16537608 0.37583429
0.074823439 -0.16425894 0.37578198
0.084563553 -0.16502146 0.37434319
0.093770139 -0.16496491 0.37505752
0.1051936 -0.16620496 0.3744798
0.11605934 -0.16551366 0.374293
0.12591471 -0.16617332 0.37367857
0.13477689 -0.1641873 0.37547538
0.14602128 -0.16512854 0.37546492
0.15528746 -0.16440867 0.37430951
0.1635755 -0.16539174 0.37499946
0.17445336 -0.16600192 0.37424135
0.18512204 -0.16596945 0.37541974
0.195049 -0.16504118 0.37501255
0.20422794 -0.16537562 0.37470928
0.21530293 -0.16485001 0.37535319
0.22616071 -0.16486302 0.37494409
0.23596559 -0.16529702 0.37502331
0.24458472 -0.16565268 0.37509653
0.25471863 -0.16560893 0.37559983
0.26375842 -0.16539986 0.37518016
0.27461758 -0.16521338 0.37441623
0.28566626 -0.16592139 0.37427297
0.29527232 -0.16536206 0.37491748
0.30592078 -0.1651997 0.37542412
0.31596416 -0.16567928 0.37559107
0.32478949 -0.16546176 0.37548476
0.33439177 -0.1647847 0.37614387
0.34510761 -0.16461033 0.37522113
0.35590521 -0.16515279 0.37507311
0.36517733 -0.16401511 0.3764469
0.37538016 -0.1655632 0.37549376
0.38373482 -0.16663742 0.37548614
0.39353392 -0.16146438 0.3717677
-0.0051744482 -0.15569048 0.37182629
0.0059369477 -0.15584439 0.37355188
0.015051864 -0.15511391 0.37374517
0.024755631 -0.1536461 0.37444237
0.034892548 -0.1558186 0.37477982
0.045512781 -0.15529735 0.37481463
0.056288499 -0.15470491 0.37454835
0.06482438 -0.15640315 0.37545499
0.074187413 -0.15436481 0.37493327
0.082584888 -0.1559329 0.37407976
0.094329022 -0.15511593 0.37565106
0.10452798 -0.15508091 0.37507501
0.11642666 -0.154618 0.37538293
0.1255129 -0.15565453 0.37543857
0.13494337 -0.15526697 0.37645864
0.14643894 -0.15579915 0.37560055
0.15382941 -0.15444575 0.37429383
0.16401197 -0.15504564 0.37540236
0.17522456 -0.15455928 0.37559304
0.18453379 -0.15444703 0.37521142
0.19577327 -0.15483733 0.37604827
0.20476222 -0.15461473 0.37534508
0.21523719 -0.15409984 0.37562174
0.22594261 -0.15463524 0.37545261
0.2353833 -0.15460077 0.37483853
0.24449527 -0.15561825 0.3754403
0.25453478 -0.15521325 0.37611586
0.26432768 -0.15416014 0.37640145
0.27442893 -0.15520884 0.37544298
0.28544906 -0.15498583 0.37526178
0.29551834 -0.15480942 0.37584373
0.3058497 -0.15542017 0.37574345
0.31589073 -0.15524249 0.37616223
0.32458323 -0.15645608 0.37563625
0.33332336 -0.15455218 0.37558323
0.34390494 -0.15526225 0.37507218
0.35640228 -0.15442429 0.37621042
0.36536646 -0.15622167 0.37693748
0.37558928 -0.15529622 0.37570795
0.38477018 -0.15595667 0.37328261
0.39314213 -0.15396491 0.37089887
-0.0032984018 -0.14497906 0.37216294
0.0055285371 -0.14611693 0.37323791
0.015157807 -0.14556336 0.37417027
0.02376174 -0.14317708 0.37493953
0.034246445 -0.14474587 0.37448108
0.046201281 -0.14475824 0.37532523
0.055825889 -0.14580485 0.37410343
0.064817525 -0.14553781 0.37323049
0.073876098 -0.14425464 0.37431115
0.084115997 -0.14554916 0.37442449
0.094473951 -0.14397173 0.37473783
0.10569345 -0.14406887 0.37441152
0.11664041 -0.14541468 0.37505534
0.12656096 -0.14529648 0.37341082
0.13477263 -0.14518088 0.37489882
0.14507441 -0.14540152 0.37473571
0.15379414 -0.14633232 0.37412056
0.16398618 -0.14456573 0.37500152
0.17544857 -0.14413343 0.37415478
0.18468928 -0.14361981 0.37662107
0.19504298 -0.14419767 0.37422895
0.20366979 -0.14458722 0.37564057
0.21585621 -0.14439154 0.37547594
0.22635633 -0.14612558 0.37579951
0.23585744 -0.14496361 0.37509176
0.2464027 -0.14549923 0.37510845
0.25564834 -0.14460942 0.3746554
0.26256689 -0.14481147 0.37563065
0.27397969 -0.14386947 0.37467408
0.28512374 -0.14336269 0.3753165
0.29484388 -0.1441769 0.37602389
0.30533898 -0.14474915 0.37541607
0.31630361 -0.14543866 0.37575412
0.3241947 -0.14652683 0.37555501
0.33456185 -0.14538465 0.37526503
0.34478733 -0.14576337 0.37619719
0.35549182 -0.1437088 0.37485033
0.36598304 -0.14597625 0.37617162
0.37563425 -0.14637208 0.37598059
0.38443908 -0.14573248 0.37439302
0.39403647 -0.14486948 0.37133181
-0.0060392865 -0.13519795 0.37336615
0.0073188664 -0.13653171 0.37225541
0.015367853 -0.13487524 0.37380108
0.025494684 -0.13425873 0.3751927
0.034225125 -0.13485409 0.37512547
0.04604736 -0.13604544 0.3741394
0.055643111 -0.13536011 0.37488741
0.065862067 -0.13560535 0.37428343
0.074630134 -0.13478872 0.3750965
0.083728351 -0.13392089 0.37545455
0.094161227 -0.1339682 0.37590933
0.10564815 -0.13402955 0.3756727
0.11574168 -0.13581538 0.37487841
0.12472972 -0.13473153 0.37565276
0.13557224 -0.13430177 0.37581864
0.14613941 -0.13479844 0.37565598
0.15314347 -0.13300677 0.37502497
0.16346708 -0.13419399 0.37529311
0.17598225 -0.13551007 0.37558469
0.18424007 -0.13440353 0.3748737
0.1949544 -0.1358694 0.37498009
0.20530115 -0.1346183 0.37643847
0.21528229 -0.1349798 0.37448967
0.22543144 -0.13524479 0.37635458
0.23445804 -0.13487676 0.37477797
0.2453711 -0.13504818 0.37597072
0.25555161 -0.13457197 0.37581339
0.26299334 -0.13412394 0.37763813
0.2727623 -0.13362812 0.37598801
0.28542086 -0.13502413 0.3758902
0.295968 -0.13470572 0.37732717
0.30570465 -0.13631339 0.37629715
0.31636167 -0.13443209 0.37501964
0.32510203 -0.1358735 0.37669575
0.33438578 -0.13514046 0.37570384
0.34399065 -0.13542572 0.37607026
0.35518476 -0.13376445 0.37626103
0.36619565 -0.13615495 0.37704605
0.37432972 -0.1358553 0.37577444
0.38378969 -0.13516504 0.37343663
0.39280543 -0.13365462 0.37206483
-0.012456933 -0.12418978 0.37061962
-0.0039174347 -0.12571506 0.37368307
0.0070835119 -0.12610309 0.37500221
0.014020083 -0.12559693 0.37467295
0.024358954 -0.12469224 0.37384561
0.033552933 -0.12332759 0.37483519
0.045971662 -0.12568735 0.37394983
0.056331411 -0.12444658 0.37444118
0.065269262 -0.12433039 0.37463462
0.074190475 -0.12488559 0.37379465
0.084725119 -0.1235535 0.37418213
0.094697557 -0.12399346 0.37409317
0.10537741 -0.12482659 0.37502325
0.11440071 -0.12462194 0.3737804
0.12438092 -0.12282912 0.37479264
0.13619028 -0.12445704 0.37462875
0.14578216 -0.123896 0.37448308
0.15376966 -0.12355997 0.37395144
0.1633516 -0.12391457 0.37496978
0.17614491 -0.12448226 0.37509936
0.18456247 -0.12490802 0.37491959
0.1958783 -0.12520733 0.37551782
0.20358276 -0.12454299 0.3757323
0.21406126 -0.12480025 0.37546757
0.22554414 -0.12396952 0.37510476
0.23432551 -0.12531996 0.37430337
0.24614339 -0.12455409 0.37460735
0.25667217 -0.12416911 0.37446102
0.2667709 -0.12620884 0.37462902
0.27481797 -0.12486623 0.37511286
0.28431854 -0.12634319 0.37398624
0.29567772 -0.12503053 0.37526035
0.30445573 -0.12602088 0.37513399
0.3153865 -0.12530771 0.37485909
0.32373646 -0.12629478 0.3773433
0.33398739 -0.12394525 0.37580431
0.34409782 -0.1240167 0.37479576
0.35531405 -0.12536953 0.37496707
0.36691108 -0.12490716 0.37483749
0.37489325 -0.12504801 0.37507388
0.38522583 -0.1259938 0.37414363
0.39428526 -0.12406301 0.37380913
-0.013619725 -0.11325485 0.37292331
-0.0048550516 -0.11489519 0.37430146
0.0038887602 -0.11419124 0.37432712
0.015983066 -0.1173289 0.37502989
0.024158321 -0.11521479 0.37459505
0.035480499 -0.11411969 0.37559438
0.046175174 -0.11494225 0.37425324
0.0552481 -0.11407684 0.37442726
0.065333553 -0.11441273 0.37495115
0.075375535 -0.11430289 0.37484851
0.083528861 -0.11402666 0.37498629
0.094206698 -0.11453716 0.37567103
0.10441875 -0.1133966 0.37488952
0.11547965 -0.11433304 0.37381515
0.12388353 -0.11326675 0.3746818
0.1344741 -0.11479972 0.37507659
0.14580722 -0.11309838 0.37537277
0.15363391 -0.11477885 0.37558165
0.16351457 -0.11421979 0.37547061
0.17530212 -0.11405849 0.37564963
0.18517965 -0.11349361 0.37607792
0.19599277 -0.11351606 0.37579846
0.20476276 -0.11417369 0.37433687
0.21397269 -0.11385159 0.37576994
0.22507021 -0.11376633 0.37535203
0.23423815 -0.11450536 0.37540779
0.24560033 -0.11343395 0.3749373
0.25557479 -0.11410844 0.37591231
0.26388115 -0.11372184 0.37582806
0.27378929 -0.11380205 0.37539452
0.28526327 -0.11409557 0.37505135
0.29638097 -0.11344099 0.37623072
0.30534106 -0.11385564 0.37601858
0.31534109 -0.11450037 0.3754878
0.32445729 -0.11397048 0.37563917
0.33375993 -0.11377614 0.3771258
0.34455198 -0.11355937 0.37618718
0.35564378 -0.11425328 0.37479514
0.3637878 -0.11512399 0.37450981
0.37451118 -0.11587167 0.37390488
0.38464323 -0.11522201 0.37513995
0.39470023 -0.11492205 0.37443599
0.40075329 -0.11359528 0.37198591
-0.012287395 -0.10579026 0.37534681
-0.0050818888 -0.10447941 0.37329331
0.0040397109 -0.10446026 0.37456754
0.011982252 -0.10300074 0.37286878
0.034716349 -0.10885282 0.37409887
0.045288038 -0.1083656 0.37319183
0.056241453 -0.1087487 0.37543303
0.065757543 -0.10897716 0.3733961
0.075200453 -0.10884989 0.37338695
0.085425854 -0.10825811 0.37413156
0.093846664 -0.10928774 0.37360936
0.1041519 -0.10859976 0.3735849
0.11652347 -0.10857849 0.37208563
0.12562604 -0.10810299 0.37397885
0.13416995 -0.10869334 0.37478343
0.14412433 -0.1082525 0.37282345
0.15519828 -0.1084977 0.37465572
0.16476133 -0.10851024 0.37258995
0.17403117 -0.10856152 0.37502939
0.18588929 -0.10832017 0.37279496
0.19457553 -0.10871807 0.37473366
0.20592684 -0.10891759 0.37409732
0.21596235 -0.10911409 0.37525696
0.2258922 -0.10918114 0.37531731
0.23632875 -0.10898955 0.37452835
0.24446554 -0.10850228 0.37354314
0.255611 -0.10915677 0.37467512
0.26540151 -0.10888574 0.37365276
0.27354437 -0.10893346 0.37424678
0.28441378 -0.10903972 0.3731271
0.29361889 -0.10870615 0.37295333
0.3050476 -0.10873189 0.37274578
0.31667721 -0.10884775 0.37275174
0.3241249 -0.10887069 0.37280968
0.33544487 -0.10873993 0.37316537
0.34557316 -0.1099464 0.37359717
0.35321954 -0.10946927 0.37204084
0.36194441 -0.10976195 0.37023872
0.3781499 -0.10635868 0.37455702
0.38512516 -0.10558932 0.37554884
0.39379108 -0.10435583 0.37514547
0.40161511 -0.1050119 0.37445843
-0.011597926 -0.095651247 0.37624252
-0.0040992899 -0.09425392 0.37595186
0.0061163423 -0.095582724 0.37446138
0.012232104 -0.092254698 0.3757135
0.37664074 -0.097340822 0.37599024
0.38628787 -0.095145561 0.37419823
0.39498526 -0.094633579 0.37501019
0.40192354 -0.095247127 0.37453201
-0.010250479 -0.089995116 0.37632346
-0.0044450322 -0.085822836 0.37578681
0.0038208407 -0.086162403 0.37531877
0.012303583 -0.088300981 0.37578595
0.37761998 -0.087471932 0.37599644
0.3854875 -0.085769035 0.37500581
0.3945446 -0.086153276 0.37550488
0.017056525 -0.41538635 0.38087392
0.024141083 -0.41510835 0.38170788
0.035196859 -0.41377655 0.38087523
0.35418221 -0.41428471 0.38048196
0.36482552 -0.41386953 0.38089615
0.37215629 -0.41356829 0.38063791
0.0083023906 -0.40429348 0.38104767
0.013633907 -0.40645942 0.38177571
0.024093682 -0.40631804 0.38252649
0.033647902 -0.40345994 0.3818832
0.043467939 -0.40454024 0.38040146
0.35602212 -0.40446016 0.38148919
0.36482349 -0.40471816 0.38154587
0.37429008 -0.40452942 0.38144785
0.38123292 -0.40343624 0.38033515
0.0075180829 -0.39334965 0.38143516
0.014453553 -0.39787495 0.38255024
0.024571868 -0.39580062 0.38232857
0.036033899 -0.39445943 0.38147935
0.044291973 -0.3929489 0.38089269
0.34600043 -0.39470783 0.38060033
0.35535043 -0.39519814 0.38176057
0.36381298 -0.39646444 0.38200545
0.3747344 -0.3943989 0.38161728
0.38115531 -0.39821386 0.38047957
0.0073127449 -0.38320595 0.38237485
0.013786834 -0.38690567 0.38316774
0.023456408 -0.38490599 0.38350713
0.033339482 -0.38453904 0.38186112
0.044794016 -0.38437834 0.38073331
0.34869885 -0.3824102 0.38128161
0.35460642 -0.38495588 0.38135362
0.36384112 -0.38598067 0.38240683
0.37427473 -0.38482207 0.38205078
0.38157177 -0.38362139 0.38037518
0.0059385598 -0.3787362 0.38088328
0.015124148 -0.3746303 0.38311115
0.023309676 -0.37492755 0.38313189
0.034697387 -0.37544361 0.38144183
0.04260812 -0.37397331 0.38036746
0.34612286 -0.37255532 0.3808361
0.35472319 -0.37450799 0.38174784
0.36368081 -0.37550071 0.38268849
0.37491295 -0.3765094 0.38159439
0.38096583 -0.37522855 0.38033891
0.0076346844 -0.36810571 0.38177103
0.014369627 -0.36353445 0.38290167
0.023354538 -0.36332515 0.38281935
0.034556445 -0.36428151 0.38191721
0.044619903 -0.36511314 0.38077268
0.34967911 -0.36855972 0.38221657
0.35418767 -0.36343685 0.38144583
0.36458635 -0.36531338 0.38246244
0.37465242 -0.36580256 0.38192135
0.38259649 -0.36516252 0.3801972
0.0081465347 -0.35531652 0.38157463
0.014889638 -0.3548035 0.38324913
0.025402533 -0.35524547 0.3825452
0.035054099 -0.35284272 0.38204747
0.04554572 -0.3538188 0.38074666
0.34692401 -0.3571645 0.38094369
0.35405457 -0.35345438 0.38155827
0.36530128 -0.35588235 0.38238522
0.37541786 -0.35661301 0.38210392
0.38115197 -0.35445637 0.38025129
0.007809639 -0.34451628 0.3817012
0.016548777 -0.34486023 0.38343647
0.023866136 -0.3456572 0.38282579
0.035875425 -0.34617656 0.38057858
0.044029251 -0.34455836 0.38096833
0.34640047 -0.34570375 0.38042498
0.35552117 -0.34437165 0.38160256
0.36547843 -0.34575322 0.38269162
0.37572694 -0.34632206 0.38171285
0.38222462 -0.34391266 0.38015634
0.0070073069 -0.33408493 0.38146219
0.016102115 -0.33481061 0.38317731
0.025737874 -0.33457798 0.38284579
0.036343727 -0.33630565 0.3815403
0.043245483 -0.33434662 0.38110453
0.33915007 -0.33088517 0.38052684
0.34582028 -0.3372291 0.38060221
0.35467395 -0.3334026 0.38175136
0.36538401 -0.33570495 0.38293603
0.37512389 -0.33637422 0.38170156
0.38136572 -0.33329514 0.38016221
0.0070670843 -0.32422251 0.38176152
0.016131407 -0.32484439 0.38362733
0.025739776 -0.32561469 0.38309765
0.03490828 -0.3232739 0.38173765
0.043998554 -0.32419217 0.38076395
0.34633407 -0.32636064 0.38077602
0.35527521 -0.3227905 0.38201463
0.36626342 -0.32503489 0.38289958
0.37499872 -0.32714123 0.38162154
0.38075772 -0.32564145 0.38101786
0.0062015951 -0.31914452 0.38122186
0.014876586 -0.31517187 0.38352624
0.025536979 -0.31457847 0.38309151
0.033568949 -0.31502292 0.38213491
0.045157757 -0.31478557 0.38099167
0.34458813 -0.315653 0.38063613
0.35522646 -0.31270847 0.38153502
0.36595562 -0.31496125 0.38313186
0.37436843 -0.31673926 0.38180304
0.38078937 -0.31473765 0.38076028
0.0061299428 -0.30784965 0.38130045
0.014820114 -0.3057259 0.38314536
0.025240872 -0.30476665 0.38203385
0.034851998 -0.30687511 0.38156039
0.044246614 -0.3046478 0.38088566
0.34576669 -0.30513614 0.38083509
0.35575068 -0.30624264 0.38199008
0.36661854 -0.30488473 0.38264975
0.37365261 -0.30612445 0.38205254
0.3812491 -0.30095774 0.38064766
0.005863776 -0.29553649 0.38107356
0.015580904 -0.29495323 0.3836396
0.024751304 -0.29465821 0.38283238
0.03599 -0.29696468 0.38218072
0.043318033 -0.29615474 0.38158625
0.34693855 -0.29656765 0.38084969
0.35508254 -0.29741046 0.38207766
0.36311039 -0.29555598 0.38167173
0.37318295 -0.29555047 0.38256451
0.0071147769 -0.28440693 0.38171214
0.014350761 -0.2858178 0.38364404
0.024201956 -0.28419 0.38267565
0.034926392 -0.28403902 0.38184494
0.043350264 -0.28582332 0.38100091
0.34787267 -0.28587338 0.38124067
0.35449928 -0.28656352 0.3817302
0.36446992 -0.28559205 0.38211274
0.37260884 -0.28638285 0.38316509
0.38122118 -0.28700835 0.38093573
0.007408475 -0.27079979 0.38115308
0.014359404 -0.27513617 0.38346583
0.024540409 -0.27540743 0.38297391
0.037803262 -0.27452096 0.38152394
0.043600917 -0.2749013 0.3814137
0.34801427 -0.27733549 0.38119349
0.35569701 -0.27595785 0.38188693
0.36280364 -0.27522588 0.38265574
0.37331763 -0.27507713 0.38243219
0.38157663 -0.2725631 0.3805837
0.013939294 -0.26527321 0.38396138
0.024353078 -0.26553577 0.38220987
0.036401957 -0.26340374 0.38180557
0.043993957 -0.26591167 0.38115621
0.34766355 -0.26592115 0.38090897
0.35532629 -0.26679263 0.38229465
0.36391687 -0.26634935 0.38223934
0.37378424 -0.26577616 0.38309857
0.0077813901 -0.25697842 0.38162708
0.013701851 -0.25303754 0.38427278
0.024259776 -0.25531217 0.3832818
0.038156122 -0.25534239 0.38087633
0.044268832 -0.25403967 0.38161209
0.33607447 -0.25317258 0.38036522
0.34786764 -0.25471744 0.3804746
0.35583982 -0.25479779 0.38223347
0.36359999 -0.25602737 0.38174483
0.3736814 -0.25561282 0.38187671
0.38183072 -0.25773108 0.38019466
0.0074541606 -0.24450764 0.38154358
0.013799908 -0.24476235 0.38288155
0.023896873 -0.2455961 0.38253951
0.035744052 -0.24752498 0.38217393
0.042950436 -0.2429861 0.38153458
0.34817386 -0.24700513 0.38065839
0.35497636 -0.24671008 0.38264018
0.36360237 -0.24467826 0.38238972
0.37401319 -0.2475508 0.38216931
0.007980396 -0.23414357 0.38207754
0.014778897 -0.23624437 0.38260019
0.023641786 -0.23404758 0.38317907
0.036956269 -0.23460379 0.38066483
0.042926803 -0.2356908 0.3819474
0.33857846 -0.23472199 0.38022238
0.34910718 -0.2363877 0.38045877
0.35653535 -0.23491406 0.38291007
0.3624267 -0.2351505 0.3816658
0.37440741 -0.23713058 0.38194856
0.38258326 -0.23453072 0.38039026
0.0076855421 -0.2252136 0.38210028
0.014988139 -0.2250835 0.38321888
0.025024194 -0.22594818 0.38270488
0.03561179 -0.224764 0.38122568
0.043853424 -0.22540958 0.38171005
0.33981708 -0.22432923 0.38160095
0.34707928 -0.22498186 0.38065323
0.35700369 -0.22468252 0.38218296
0.36265752 -0.22507061 0.38263765
0.3745656 -0.22578764 0.38179716
0.38104373 -0.22168535 0.38140294
0.0077532008 -0.21422344 0.3826443
0.014762647 -0.21400975 0.38303399
0.024482777 -0.21483149 0.38341427
0.038384996 -0.21668907 0.38160461
0.042303849 -0.21350375 0.38180608
0.056993842 -0.21450442 0.38029385
0.34520277 -0.21549 0.38058722
0.3554253 -0.21539535 0.38236597
0.36315382 -0.21462609 0.38292399
0.37387219 -0.21614154 0.38233978
0.0063673435 -0.20552926 0.38200027
0.014350417 -0.20501043 0.38275298
0.025871124 -0.20444909 0.38285825
0.036542736 -0.20419964 0.38098854
0.046218742 -0.20518152 0.38150516
0.3290664 -0.20051593 0.38006544
0.34406474 -0.20497426 0.38092548
0.35472479 -0.20514697 0.38192606
0.36311448 -0.20626076 0.38285637
0.37536731 -0.20514713 0.3822577
0.0077745118 -0.19668464 0.38246608
0.014765915 -0.19447151 0.38289136
0.024619576 -0.19521154 0.38275501
0.037285808 -0.19540231 0.38246611
0.044251908 -0.19527194 0.38230652
0.057191849 -0.19494784 0.38118538
0.33609721 -0.19154602 0.38103145
0.34490573 -0.19481552 0.38159966
0.35529283 -0.19437361 0.38190982
0.36425301 -0.19432779 0.38307771
0.37430704 -0.19507864 0.38216147
0.0072626234 -0.18527761 0.38185006
0.013113718 -0.18573122 0.38378233
0.023397695 -0.1854241 0.38379532
0.036179345 -0.18328409 0.38171855
0.043188356 -0.18359759 0.38139564
0.054602444 -0.18619099 0.38050416
0.3444756 -0.18476287 0.38142601
0.35613948 -0.18485123 0.38272542
0.36489931 -0.18306477 0.38331166
0.37421194 -0.18542971 0.38197225
0.0072291098 -0.17665888 0.38114604
0.013295303 -0.17513716 0.38345519
0.023407836 -0.17438243 0.38410899
0.037482277 -0.17574103 0.38243091
0.043674424 -0.17459644 0.38243464
0.05491066 -0.17492241 0.3821578
0.065333888 -0.17367707 0.38049436
0.32661402 -0.1757195 0.38037014
0.33401579 -0.17466314 0.38119474
0.34476921 -0.17447796 0.38245541
0.35385016 -0.17656182 0.38228261
0.36392874 -0.17374149 0.38256747
0.37453324 -0.17506447 0.38217947
0.38077003 -0.17508274 0.3814382
0.008313328 -0.164507 0.38120168
0.012702242 -0.16554821 0.3833316
0.023731966 -0.16464604 0.3833721
0.035799071 -0.16443495 0.3829222
0.045866266 -0.16400459 0.38251877
0.053433582 -0.16369458 0.38248706
0.065067381 -0.16298014 0.38187337
0.078545451 -0.16435581 0.38042903
0.081709862 -0.16397876 0.38180375
0.1063773 -0.16096109 0.38071728
0.1299836 -0.16401708 0.38073555
0.13649145 -0.16214311 0.38088903
0.16302407 -0.16393399 0.38047647
0.1777454 -0.16579342 0.38018441
0.18934898 -0.1657505 0.38007858
0.20365104 -0.16022182 0.38129309
0.24934563 -0.16215825 0.38078278
0.28173429 -0.16188908 0.38103938
0.29326761 -0.16358227 0.38027853
0.30741623 -0.16569155 0.38120651
0.31645307 -0.1616549 0.38116625
0.32504374 -0.165261 0.38170028
0.33467519 -0.16398025 0.38154846
0.3449991 -0.16512609 0.383205
0.35477632 -0.16545418 0.38281849
0.36464307 -0.16485147 0.38305649
0.37377197 -0.16624983 0.38341224
0.0088079572 -0.15446784 0.38194871
0.013416361 -0.15544502 0.38381845
0.024604371 -0.15516603 0.38423407
0.036405537 -0.15399787 0.38237146
0.04553454 -0.15528259 0.38349536
0.055772781 -0.15360494 0.38399181
0.06356445 -0.1560896 0.38236064
0.072415091 -0.15519133 0.38138193
0.084983885 -0.15528505 0.38122442
0.094239511 -0.153706 0.38101813
0.10543397 -0.1554635 0.38180411
0.11188763 -0.15279528 0.38078684
0.123473 -0.15385526 0.38156796
0.13471484 -0.15047264 0.38349062
0.14533889 -0.15498489 0.38101861
0.15349849 -0.15509444 0.38150918
0.1632202 -0.15357323 0.38063458
0.17472921 -0.15585917 0.38132334
0.18356223 -0.153834 0.3815504
0.20440432 -0.15427417 0.3808006
0.21592495 -0.15283608 0.38098109
0.22815891 -0.15456869 0.38146779
0.23429704 -0.1542421 0.380741
0.24114203 -0.15258336 0.3817881
0.25727224 -0.15595029 0.38140607
0.26526445 -0.15339476 0.38060716
0.27474758 -0.1537322 0.38139096
0.28237033 -0.15651721 0.38102221
0.29609567 -0.15136309 0.38215452
0.30678815 -0.15413028 0.38091937
0.31498748 -0.15404791 0.38179353
0.32337761 -0.1540077 0.38221154
0.33558288 -0.15406044 0.38225964
0.3448289 -0.15563528 0.38243604
0.35510129 -0.1548195 0.38365725
0.36518833 -0.15497464 0.38351294
0.37488118 -0.15564744 0.38269415
0.0091821654 -0.14401789 0.38271359
0.011857086 -0.14449331 0.38315973
0.023219505 -0.14541183 0.38479587
0.034577705 -0.14506757 0.38332304
0.04617561 -0.14522132 0.38307571
0.05349987 -0.14488555 0.38381964
0.064216234 -0.14498752 0.38273561
0.075880602 -0.14540499 0.38279107
0.08418604 -0.14411196 0.38196024
0.095046349 -0.14380822 0.38221011
0.10612969 -0.14404288 0.38193232
0.11515745 -0.14227401 0.38248459
0.12502564 -0.14338218 0.38201034
0.1346036 -0.14380541 0.3816427
0.14727218 -0.14400928 0.38202241
0.15530065 -0.14200483 0.3819876
0.16427149 -0.14541078 0.38292509
0.17485735 -0.14367898 0.38194451
0.18477888 -0.14304194 0.38181254
0.19248953 -0.1439279 0.38226551
0.2047862 -0.1431389 0.38201964
0.21644944 -0.14417805 0.38197893
0.22511204 -0.14323616 0.38188383
0.23436113 -0.1443947 0.38219181
0.24384031 -0.14426605 0.38197571
0.25468549 -0.14441459 0.38224578
0.26446259 -0.14342149 0.38142553
0.27447766 -0.14481367 0.38186973
0.28369486 -0.14380825 0.38147405
0.29688147 -0.14476421 0.38133916
0.30680898 -0.1446577 0.38153702
0.31540075 -0.14603971 0.38200924
0.32416245 -0.14490654 0.38220033
0.33604288 -0.14369725 0.38340217
0.34458798 -0.1449274 0.383055
0.35459113 -0.14550219 0.38400146
0.36458236 -0.1444186 0.38367033
0.37455168 -0.14398569 0.38199201
0.0074430802 -0.13303517 0.38057008
0.012817546 -0.13362944 0.38202262
0.0242243 -0.13505276 0.38422656
0.034180742 -0.13434981 0.38428053
0.047233474 -0.13567954 0.38444814
0.055531435 -0.13578936 0.38380712
0.06463974 -0.13648184 0.38329464
0.07554689 -0.13714218 0.38258404
0.084337793 -0.1353918 0.38479874
0.092793718 -0.13627101 0.38363957
0.10586516 -0.13392496 0.38269836
0.11723439 -0.13539581 0.38304898
0.12335417 -0.13374667 0.3834523
0.13529912 -0.13544157 0.38326779
0.1462827 -0.13464412 0.38180155
0.15442073 -0.1350226 0.3827574
0.16540498 -0.13411313 0.38242847
0.17499778 -0.13261381 0.38363594
0.1856793 -0.13486432 0.38275757
0.19180334 -0.1333763 0.38336363
0.20451485 -0.13287966 0.38243225
0.21605405 -0.13301797 0.38306597
0.22674069 -0.13440441 0.38251686
0.23466791 -0.13705821 0.38290262
0.24453466 -0.13407162 0.38241816
0.2545253 -0.13531426 0.38247314
0.26426044 -0.13706388 0.38165456
0.27444464 -0.13619234 0.38244709
0.28469998 -0.13418436 0.3831183
0.29611963 -0.13483416 0.38245982
0.30532485 -0.13568594 0.38217488
0.31413141 -0.13519517 0.38258672
0.32437691 -0.13560475 0.38286602
0.33507201 -0.13566725 0.38356894
0.34442982 -0.13528101 0.38279027
0.35465756 -0.13508463 0.3846724
0.36544558 -0.13359469 0.38327709
0.37349594 -0.135068 0.38309541
0.01559481 -0.12722126 0.38481897
0.023968874 -0.12576205 0.38384479
0.034069121 -0.12501942 0.38326865
0.046139248 -0.12387292 0.38393942
0.055378556 -0.12412325 0.38336319
0.066397429 -0.12451217 0.38352108
0.075635821 -0.12528703 0.38292748
0.084595323 -0.12604064 0.38307726
0.095025718 -0.12594154 0.38339302
0.1058671 -0.12654406 0.38229334
0.11662187 -0.12612773 0.38397217
0.12277518 -0.12504213 0.38313168
0.13571051 -0.12510274 0.38257867
0.14587496 -0.12588459 0.38209149
0.15460691 -0.12397709 0.3836025
0.1667676 -0.12607953 0.38296291
0.17504273 -0.12332904 0.38315013
0.18540479 -0.12514761 0.38303006
0.19217232 -0.12446783 0.38369888
0.20553343 -0.12502612 0.38298225
0.21651515 -0.12341741 0.38268352
0.22638473 -0.12274694 0.38271573
0.23431787 -0.12587167 0.38397646
0.24384518 -0.1247195 0.38318378
0.25394872 -0.1236166 0.38293198
0.26486984 -0.12610298 0.38255513
0.27547681 -0.12631385 0.38313338
0.28486127 -0.12462331 0.38311416
0.29541591 -0.12387363 0.38233998
0.30514893 -0.12449373 0.38317171
0.31462073 -0.12403713 0.38303199
0.3234863 -0.12468307 0.3832182
0.33541131 -0.1255389 0.38354689
0.34504449 -0.12554891 0.38328186
0.35410944 -0.12535034 0.38354659
0.36357811 -0.12430937 0.38206851
0.37350863 -0.12818888 0.38176981
-0.0044613779 -0.11371803 0.38317314
0.00071662664 -0.11061323 0.38018513
0.022861933 -0.11717343 0.38109472
0.03403734 -0.11685321 0.3834506
0.046391513 -0.11483034 0.38333651
0.052307516 -0.11423008 0.3836298
0.06509722 -0.11518045 0.38279504
0.075885847 -0.11395272 0.38236481
0.085573539 -0.11609881 0.38287932
0.095188804 -0.11576695 0.38301596
0.10586288 -0.11649545 0.38268828
0.11643162 -0.11552991 0.38326553
0.12454686 -0.11497891 0.38242105
0.1358981 -0.11595286 0.38269976
0.14650416 -0.11739191 0.38250536
0.15545365 -0.11450348 0.38178369
0.16539729 -0.11620846 0.38292676
0.17403761 -0.11654621 0.38298035
0.18557939 -0.11528651 0.38228065
0.19315334 -0.11808761 0.38168585
0.20539677 -0.11525182 0.38225138
0.21713264 -0.11834831 0.38285357
0.225319 -0.11486918 0.38076499
0.23563151 -0.115849 0.38239831
0.2459342 -0.11557663 0.38299561
0.25391304 -0.11497926 0.38152808
0.26503152 -0.1169 0.38207981
0.27534366 -0.11660022 0.38232976
0.28544387 -0.11652673 0.38276279
0.29579824 -0.11459626 0.38179272
0.30507824 -0.11632697 0.38240492
0.31425577 -0.11466943 0.38197538
0.32388696 -0.11428422 0.38207698
0.33595589 -0.11549071 0.38218388
0.34434813 -0.11664969 0.3828038
0.3550711 -0.11561833 0.38247007
0.36551806 -0.11726364 0.38161281
0.38801402 -0.11688948 0.38025945
0.39054292 -0.11343867 0.38264614
-0.0039937743 -0.10306223 0.38407406
0.0054564178 -0.10244604 0.38729468
0.070739269 -0.10907386 0.38159671
0.086337507 -0.10936752 0.38149342
0.201038 -0.10946713 0.38021755
0.38627312 -0.10404855 0.38347018
0.39304066 -0.10120875 0.38170925
-0.014482811 -0.090568155 0.3860139
-0.0041545308 -0.093726844 0.38486657
0.0038814971 -0.093886666 0.38447186
0.011974253 -0.095012426 0.38342375
0.37752476 -0.09286081 0.3844451
0.38384464 -0.09603145 0.38614336
0.39476681 -0.094073631 0.38500625
0.40252241 -0.092201233 0.38715148
-0.011867093 -0.088546969 0.38595712
-0.0034563863 -0.084269978 0.38570395
0.0051751034 -0.085015155 0.38537815
0.011804128 -0.084068954 0.38440159
0.37765405 -0.086804166 0.38730085
0.3847881 -0.084447466 0.38575748
0.39365992 -0.085103497 0.38571325
0.40141052 -0.087064385 0.38480458
-0.0048419237 -0.079562724 0.38730508
0.0045810342 -0.077770695 0.38915575
0.38630235 -0.078772336 0.38827249
0.39353043 -0.078546055 0.38803419
-0.01119408 -0.0908629 0.39203244
-0.0061177271 -0.093436889 0.39321458
0.0049665123 -0.092002951 0.39410859
0.010517359 -0.090394288 0.39343765
0.37736231 -0.092139125 0.39442626
0.38521245 -0.09372776 0.39456731
0.39391378 -0.092465103 0.3962214
-0.011382163 -0.08406423 0.39230654
-0.0041040489 -0.085136279 0.39526293
0.0047689117 -0.084145039 0.39483804
0.011111942 -0.084128082 0.39607811
0.37661052 -0.082751572 0.39665303
0.38623971 -0.084079742 0.39548182
0.39441782 -0.08407148 0.39536732
0.40363637 -0.086408526 0.39521226
-0.0049793161 -0.078456827 0.39492264
0.0051455372 -0.078270212 0.3959659
0.011533961 -0.079340108 0.39559504
0.37897933 -0.078722998 0.3988646
0.38546517 -0.079081424 0.39512026
0.39419556 -0.078247562 0.39464235
-0.012147984 -0.092817366 0.40067843
-0.0051937052 -0.091803789 0.40347567
0.0076191723 -0.093610793 0.40206724
0.37576163 -0.09287405 0.40152535
0.38617799 -0.090888202 0.40364119
0.39499903 -0.091756411 0.4028855
0.40072787 -0.090620637 0.40051264
-0.011513015 -0.085372277 0.40448293
-0.0047518536 -0.084971093 0.40459761
0.0042164121 -0.084580585 0.4039982
0.011410628 -0.083314344 0.40382013
0.37673339 -0.085167833 0.40447319
0.38544074 -0.084445983 0.40506551
0.39496478 -0.084480733 0.40560248
0.40156832 -0.084014334 0.4035283
-0.010631368 -0.078733623 0.40275201
-0.0049880282 -0.076892793 0.40637293
0.0041178493 -0.077072576 0.40581322
0.011850749 -0.077509172 0.40632641
0.37950408 -0.07810694 0.40481195
0.38624856 -0.07682696 0.40605116
0.39449438 -0.076903291 0.4059478
0.40182668 -0.07908535 0.40133172
-0.010463238 -0.093080163 0.41359237
-0.001234442 -0.090695739 0.41640294
0.0048882961 -0.091386557 0.41446245
0.3779217 -0.091073394 0.41207454
0.38563514 -0.091484636 0.4118672
0.39443135 -0.090420663 0.41179979
-0.013008771 -0.082941964 0.41433889
-0.0051102876 -0.084825367 0.41485775
0.0044724131 -0.084394738 0.41518146
0.011442244 -0.082855657 0.41376752
0.37889594 -0.083494864 0.41608602
0.38525814 -0.086675018 0.41475549
0.39489806 -0.084499925 0.41420501
0.40187302 -0.086575195 0.41340724
-0.012132715 -0.078009114 0.41722465
-0.0041069123 -0.076291919 0.41538909
0.0047600917 -0.074429229 0.4163619
0.011581363 -0.076130316 0.41535643
0.37738365 -0.077389501 0.41436377
0.38630584 -0.076361291 0.41540211
0.39349258 -0.076971158 0.41546047
0.4013555 -0.075714342 0.41518053
-0.010843784 -0.090378404 0.42572823
-0.012373997 -0.082901254 0.42486176
-0.0042644115 -0.083135575 0.42415673
0.0028093501 -0.084146298 0.42490533
0.010995805 -0.080006361 0.42007312
0.37658232 -0.083367385 0.42442602
0.38553718 -0.085187785 0.42508206
0.39473304 -0.084538318 0.42342198
0.4021858 -0.083454601 0.42484206
-0.010618523 -0.074634701 0.42784548
-0.0047233305 -0.075785197 0.42494297
0.0043507377 -0.074198551 0.42615068
0.011582151 -0.075379863 0.42626184
0.37704441 -0.076534875 0.42571265
0.38606107 -0.074069925 0.42511204
0.39399368 -0.076202378 0.42484233
0.40121755 -0.076087691 0.42557618
-0.011538957 -0.082901277 0.43598887
-0.0056190309 -0.082603246 0.43348289
0.0023597586 -0.082280107 0.43540949
0.37772489 -0.083462238 0.43697426
0.3863911 -0.083795026 0.43414873
0.39531669 -0.083893351 0.43397686
0.40140161 -0.081704907 0.43650115
-0.011513874 -0.077869758 0.43550056
-0.0039566867 -0.074976556 0.43432787
0.004278291 -0.073082648 0.43447933
0.011082783 -0.074306868 0.43383837
0.37719262 -0.076558486 0.43554297
0.38591594 -0.073749483 0.4356477
0.39391902 -0.075042292 0.43485236
0.40215552 -0.075400054 0.43252581
-0.0053471425 -0.06953565 0.4371399
0.0042601675 -0.069679834 0.43507433
0.38208491 -0.069224834 0.437608
0.39467388 -0.069111094 0.43654937
-0.010659968 -0.081842601 0.44440356
-0.0050703469 -0.08166603 0.44498962
0.0032669704 -0.082965948 0.44263092
0.37776431 -0.081658207 0.44304475
0.38627237 -0.082936428 0.4458366
0.39610142 -0.081926815 0.44496426
0.40216491 -0.082183495 0.44394505
-0.01146483 -0.076629817 0.44380748
-0.0050923605 -0.074384727 0.44480428
0.0039025645 -0.072828412 0.44465128
0.012210223 -0.073232137 0.44442341
0.37651399 -0.075103231 0.44561949
0.38618606 -0.073671058 0.44496444
0.39433986 -0.074971147 0.44526267
0.40095067 -0.075054266 0.4427062
-0.010273486 -0.069698319 0.44189137
-0.0052438602 -0.06938538 0.44565573
0.0053287446 -0.069163978 0.44386396
0.38575375 -0.069427967 0.44419718
0.39504594 -0.06925682 0.44616783
-0.010869302 -0.083509386 0.4516865
-0.0054483651 -0.081310265 0.45589903
0.0041813068 -0.08041545 0.45357484
0.37809101 -0.082078397 0.45492673
0.38427952 -0.081360839 0.45590544
0.39374268 -0.081792258 0.45426807
0.4022311 -0.080806933 0.45494434
-0.012873179 -0.078072093 0.45349115
-0.0038698697 -0.074693672 0.45558026
0.0043692975 -0.074179597 0.45533425
0.012263892 -0.073599793 0.45522338
0.37784022 -0.075372137 0.45399675
0.3850787 -0.07209982 0.45486888
0.39366698 -0.074931316 0.45485687
0.40196753 -0.075132027 0.45393538
-0.011080503 -0.069444895 0.45839384
-0.0038352604 -0.068970904 0.45555463
0.0049130036 -0.068695724 0.45485362
0.010843083 -0.068845049 0.45838806
0.37787974 -0.069664001 0.45633245
0.38720849 -0.069406956 0.45605886
0.39399323 -0.068403728 0.45389494
0.40106347 -0.069914788 0.45444879
-0.01109833 -0.082407698 0.46558228
-0.0049148872 -0.080767214 0.46643764
0.0041742604 -0.081355363 0.46773228
0.37541062 -0.082246006 0.46439934
0.38601911 -0.081379294 0.46592361
0.39539742 -0.081437558 0.46345145
0.4012571 -0.083350301 0.46351033
-0.011863574 -0.073245347 0.4648129
-0.0041515841 -0.07510376 0.46537215
0.0038079598 -0.074392088 0.46542656
0.012789707 -0.074021995 0.46500126
0.0217015 -0.072561443 0.46701828
0.032994684 -0.0732885 0.46731749
0.043211464 -0.073203981 0.46847835
0.052980214 -0.073212408 0.46932876
0.063876979 -0.072425395 0.46774232
0.077387452 -0.070941806 0.46869701
0.085445613 -0.074088812 0.46904439
0.093972191 -0.071771741 0.46994582
0.11300254 -0.071277738 0.46907628
0.28663653 -0.070619464 0.46843609
0.2975986 -0.072510362 0.46881282
0.32419828 -0.072846889 0.46704724
0.33615279 -0.072166488 0.46602926
0.34787884 -0.073022872 0.4677878
0.35464135 -0.073227227 0.4657343
0.36406973 -0.073764451 0.46749246
0.37709352 -0.07385283 0.46655077
0.38593319 -0.073664777 0.46449387
0.39501736 -0.073756166 0.46423188
0.4019919 -0.076387532 0.46768236
-0.010744572 -0.068675011 0.46043885
-0.0051566949 -0.068506345 0.46564165
0.00333997 -0.068044066 0.46544036
0.010999709 -0.066473715 0.46659529
0.027750969 -0.062923461 0.46780729
0.034469277 -0.066888496 0.46780938
0.04478164 -0.065114327 0.4672457
0.056200866 -0.063771099 0.46675023
0.064596646 -0.064648718 0.46687734
0.075101569 -0.064595751 0.46778464
0.084898688 -0.064412668 0.467657
0.096822776 -0.063911594 0.46852031
0.10296308 -0.063468851 0.46627179
0.11289795 -0.06498602 0.46809962
0.12601694 -0.06478332 0.46856999
0.13485858 -0.062782854 0.46795857
0.14239363 -0.064065434 0.46830302
0.15196949 -0.064140111 0.46700776
0.16499171 -0.063787878 0.46772408
0.17234136 -0.061668277 0.46967047
0.18006679 -0.06252861 0.4639343
0.19426405 -0.063782252 0.46842295
0.2086049 -0.06229195 0.46537966
0.21810925 -0.062339097 0.46915305
0.22595163 -0.064049788 0.46867812
0.23460235 -0.063351989 0.46736592
0.24626869 -0.060275018 0.46416453
0.25673389 -0.064909451 0.46676239
0.2643632 -0.06052348 0.46424496
0.27615243 -0.063244134 0.46582833
0.28457218 -0.066054881 0.46466374
0.29565021 -0.064166054 0.46564579
0.30564466 -0.067609958 0.46589503
0.3157413 -0.064229868 0.4662807
0.32754469 -0.062498927 0.46646962
0.33652785 -0.065929078 0.46430978
0.34375626 -0.062842056 0.46714926
0.35529172 -0.062569536 0.46616846
0.36458981 -0.063898653 0.46933803
0.38557982 -0.069130741 0.4646298
0.39467064 -0.068094581 0.46499184
0.4009304 -0.068532571 0.46845442
0.027202157 -0.055238314 0.46897087
0.03505145 -0.055383876 0.46766114
0.043937132 -0.055075314 0.46764129
0.055093955 -0.054332007 0.46732664
0.064563505 -0.052541722 0.46687934
0.076006405 -0.05416362 0.4661822
0.086734325 -0.052708559 0.46717173
0.095090985 -0.055229388 0.46693963
0.10599854 -0.055114698 0.46775085
0.11329108 -0.055756554 0.46747881
0.12530889 -0.05494858 0.46678671
0.13388756 -0.054486204 0.46688387
0.14654532 -0.05603075 0.46725509
0.15611872 -0.053916942 0.46705437
0.16408814 -0.053044301 0.46664539
0.17452876 -0.055759139 0.46738669
0.18626317 -0.054483369 0.46842009
0.19480729 -0.057266027 0.46761864
0.20385897 -0.055381436 0.46871701
0.21454449 -0.055655461 0.46833092
0.22629635 -0.055629171 0.46686676
0.23622391 -0.053304695 0.46605086
0.2437977 -0.054165065 0.46750689
0.25343004 -0.056804512 0.46689779
0.26704952 -0.057130586 0.4667719
0.27443424 -0.056490432 0.46623719
0.28567091 -0.054565288 0.46716595
0.29447636 -0.056853905 0.46636978
0.30528435 -0.057329364 0.46887439
0.31523275 -0.052778989 0.46617201
0.32611564 -0.055597037 0.46903443
0.33414987 -0.05502389 0.46613866
0.34402907 -0.05438222 0.46764144
0.35693678 -0.056995045 0.46665677
0.36581555 -0.057426814 0.4676213
0.0453794 -0.048187718 0.46889544
0.054054148 -0.04860577 0.46694076
0.064996943 -0.045890044 0.46843663
0.074942246 -0.047575772 0.46775717
0.086029924 -0.047157645 0.4676134
0.094529241 -0.045094747 0.46791089
0.10527205 -0.044075035 0.46766907
0.11457503 -0.045207988 0.46717826
0.12499403 -0.045070369 0.46697453
0.13442367 -0.044650771 0.46775874
0.14505138 -0.045436546 0.46687558
0.15603068 -0.042628199 0.46770591
0.16531341 -0.043305654 0.46777672
0.17542776 -0.044161014 0.46776366
0.18715706 -0.047097463 0.46640199
0.19416979 -0.044432297 0.46727505
0.20527603 -0.045509208 0.46716118
0.21483818 -0.045944151 0.46634567
0.22618698 -0.045631647 0.46701819
0.23240647 -0.047831416 0.46690854
0.24431187 -0.044618662 0.46654564
0.25479418 -0.045408059 0.46782142
0.26749408 -0.044679202 0.46800214
0.27327278 -0.045425866 0.4664934
0.28514782 -0.043285623 0.46873832
0.293165 -0.046297226 0.46628043
0.30324385 -0.044687808 0.46863118
0.31521142 -0.047232449 0.46752641
0.3259514 -0.048259471 0.46792278
0.33338821 -0.046846598 0.46745601
0.34627286 -0.048117053 0.46768236
0.35970065 -0.049349591 0.46984234
0.10575753 -0.039839461 0.46843639
0.11596814 -0.038410917 0.46927559
0.12359774 -0.038300123 0.46910301
0.13312274 -0.039136048 0.46810427
0.1469277 -0.036705852 0.46842754
0.15244934 -0.037782691 0.46836329
0.16652007 -0.03702667 0.4680194
0.17607114 -0.03839425 0.46843165
0.18781078 -0.038600825 0.46819934
0.19385648 -0.037088677 0.46851769
0.20555054 -0.03663034 0.46836051
0.21497877 -0.03813158 0.46850789
0.22714415 -0.038580142 0.46804762
0.23578863 -0.036574487 0.46957922
0.24224438 -0.038632609 0.46775639
0.25359073 -0.037851322 0.46970657
0.26116037 -0.036320135 0.46979332
0.27686059 -0.038950998 0.46831498
0.29806679 -0.039572164 0.46774951
0.30298969 -0.039440364 0.46893981
-0.01178658 -0.083684087 0.47448087
-0.0060482868 -0.080452621 0.47762737
0.0047450066 -0.080581248 0.47183841
0.013379902 -0.080996126 0.47746873
0.023951322 -0.080436684 0.47537211
0.036832493 -0.082561851 0.47923607
0.044045389 -0.080475479 0.47588205
0.3351821 -0.080737591 0.47673485
0.3452934 -0.081175238 0.4775185
0.35834229 -0.081780076 0.47774673
0.36114678 -0.082720995 0.47706529
0.37799811 -0.081768423 0.47312587
0.38163164 -0.0805628 0.47531861
0.39441895 -0.08099591 0.47484425
0.40205985 -0.080518067 0.47117588
-0.011616502 -0.075056851 0.47532225
-0.0039855218 -0.075393558 0.47467083
0.0046677538 -0.074014805 0.47393364
0.013554692 -0.074724443 0.475308
0.025522348 -0.075779736 0.47498837
0.035018858 -0.075836159 0.47521868
0.045022018 -0.074893206 0.47400087
0.055945031 -0.075123928 0.47611129
0.065465726 -0.073914446 0.47387582
0.073547825 -0.073683284 0.475223
0.084295258 -0.072784148 0.47631466
0.093921669 -0.072310708 0.47469428
0.10519323 -0.071811311 0.47565314
0.11895236 -0.073338866 0.47976559
0.12453132 -0.071004547 0.47382584
0.13313314 -0.070400119 0.47388065
0.14673063 -0.071398735 0.47956264
0.1746304 -0.07024467 0.47910124
0.23233661 -0.070294023 0.47651097
0.2467162 -0.071091771 0.47576904
0.25921607 -0.071250476 0.47608766
0.2670342 -0.070421495 0.47315145
0.27503309 -0.072366714 0.47715577
0.28586957 -0.072342135 0.47632679
0.29642755 -0.073650226 0.4764145
0.30487409 -0.073849007 0.47787756
0.31574163 -0.074279487 0.47520372
0.3258926 -0.076451562 0.47609681
0.33627355 -0.075185925 0.4770861
0.34522584 -0.075649828 0.47658685
0.35341004 -0.074939437 0.47526836
0.36393625 -0.072989881 0.47623855
0.37671685 -0.075140134 0.47589514
0.38542652 -0.075708859 0.47474295
0.39449146 -0.075476974 0.47429615
0.40121153 -0.075482227 0.47618571
-0.010705948 -0.068135619 0.47582266
-0.0045979219 -0.068205982 0.47527698
0.0044254772 -0.067249291 0.47558975
0.015216457 -0.065382607 0.47571072
0.025976432 -0.065793961 0.47415721
0.035595041 -0.064749666 0.47514623
0.045071706 -0.065766312 0.47449169
0.055277906 -0.064860873 0.47487181
0.065350205 -0.064224377 0.47490898
0.075453602 -0.065780342 0.47570235
0.084485553 -0.06551674 0.47559124
0.094770424 -0.067066863 0.47432724
0.10665195 -0.067784026 0.47582406
0.1139546 -0.067527927 0.47657195
0.12401708 -0.066782467 0.47494245
0.13490109 -0.066105612 0.47485781
0.14528039 -0.064949289 0.47337055
0.15580474 -0.066051573 0.47542992
0.16465478 -0.064309627 0.47502154
0.17426677 -0.064636894 0.47377336
0.18488456 -0.065850958 0.47653419
0.1941888 -0.065030232 0.47523984
0.2049184 -0.066623949 0.47550532
0.21587433 -0.066421859 0.47529072
0.22404912 -0.065907337 0.47529092
0.2339994 -0.064859539 0.47587237
0.24584618 -0.065845266 0.47435266
0.25642571 -0.065201208 0.47587633
0.26490912 -0.065603793 0.47614172
0.27521655 -0.066857673 0.47468141
0.28580484 -0.065381192 0.47507456
0.29506433 -0.06335251 0.47719988
0.30476996 -0.065446123 0.47616595
0.31591591 -0.065077074 0.4773111
0.32633117 -0.065305389 0.47657111
0.33384353 -0.064445421 0.47625071
0.34522647 -0.0647742 0.47617918
0.3541629 -0.065572537 0.47638389
0.36449543 -0.064962484 0.47597578
0.37536779 -0.066063762 0.47595099
0.38531062 -0.068327911 0.47657806
0.39416063 -0.068523049 0.47481552
0.40160564 -0.068709001 0.47713661
0.008087419 -0.055346988 0.47713208
0.01515484 -0.055459619 0.47602659
0.025152517 -0.054679595 0.47578508
0.035729501 -0.05602321 0.47451732
0.045584023 -0.055473857 0.47495764
0.054741684 -0.055287126 0.47523671
0.065525271 -0.054902729 0.47461882
0.07560651 -0.055575099 0.47398666
0.084294237 -0.054626912 0.47548035
0.095504038 -0.054978747 0.47513461
0.10427777 -0.0559262 0.47446796
0.11427654 -0.055928539 0.47569907
0.12433473 -0.055927835 0.47472224
