# .PCD v0.7 - Point Cloud Data file format
VERSION 0.7
FIELDS x y z
SIZE 4 4 4
TYPE F F F
COUNT 1 1 1
WIDTH 1522
HEIGHT 1
VIEWPOINT 0 0 0 1 0 0 0
POINTS 1522
DATA ascii
0.84287137 1.2542084 0.10937046
0.85723084 1.2539791 0.1100504
1.2702913 1.2537555 0.11075462
1.2843828 1.2544541 0.11023708
0.84406328 0.91485888 0.13632938
0.85946769 0.91602969 0.13683614
1.2694287 0.91559762 0.13734256
1.2838435 0.91504014 0.13673262
0.84794015 0.9268195 0.14566854
0.85754079 0.92629951 0.146167
1.2711917 0.92732632 0.14612533
1.2803118 0.92637813 0.14484632
0.84445512 1.240416 0.13685516
0.85926276 1.2399623 0.13796625
1.2696949 1.2410345 0.13800143
1.2833061 1.2408903 0.13733445
0.84829515 1.2516989 0.12840395
0.85556304 1.2512484 0.12824602
1.272182 1.2512108 0.12846078
1.2804525 1.2514969 0.12701833
0.84492809 0.92036557 0.15899108
0.86015028 0.91965526 0.16095985
1.2682307 0.9197911 0.16044752
1.2825695 0.91950727 0.16004789
0.84598953 0.92823768 0.16465919
0.86099762 0.92995614 0.1639591
0.87597239 0.92917961 0.17292735
1.2685512 0.92939872 0.16514297
1.2816389 0.92917573 0.1638281
0.84683782 1.2228032 0.16766752
0.85918391 1.2225432 0.16944991
1.2685934 1.2230484 0.16955605
1.2792553 1.2232997 0.16884503
0.84535426 1.2325485 0.16107379
0.8600176 1.2327935 0.16176525
1.2685329 1.2332814 0.16286135
1.2822714 1.2330481 0.16146421
0.84542191 0.9229461 0.1798351
0.8597753 0.92319202 0.1801334
0.8750394 0.92466134 0.17627546
1.2685463 0.9228791 0.18081595
1.2793965 0.92350239 0.17954408
0.84698445 0.93239117 0.18633938
0.86224008 0.93461668 0.18812931
0.87576109 0.93416256 0.19199133
1.2672831 0.93454504 0.18869872
1.2809963 0.93354994 0.18758464
0.97099102 1.1413881 0.19864896
0.98910898 1.1415887 0.1960777
1.013182 1.1418709 0.19447514
1.037534 1.1416271 0.19271135
1.0632821 1.1413168 0.19041309
1.0886464 1.1416301 0.19275658
1.1121492 1.1415586 0.19454767
1.1363664 1.1417537 0.195792
1.1566372 1.1418804 0.19800688
1.2648386 1.1492188 0.19959003
0.9708479 1.1530108 0.19925861
0.98869711 1.1528805 0.19597849
1.0125146 1.1528425 0.19431776
1.0383701 1.1528201 0.19320692
1.0633838 1.1529679 0.19184819
1.0877037 1.152671 0.1919286
1.1135306 1.1529464 0.19418848
1.1371613 1.1529348 0.19583054
1.1573889 1.1535827 0.198082
1.268752 1.1664264 0.19982338
0.86173528 1.1971089 0.19826467
1.2672536 1.1949848 0.19865052
0.8469727 1.2177448 0.18937425
0.86142492 1.2156909 0.1902182
0.87587541 1.2177521 0.19248642
1.2668993 1.2162006 0.19061522
1.2807006 1.2186977 0.1895327
0.8470937 1.2279969 0.18241362
0.86120886 1.228519 0.18394384
1.2673671 1.2285045 0.1849768
1.280687 1.2283961 0.18353726
0.84756869 0.93908751 0.20866829
0.86192995 0.94085133 0.2114522
0.87671089 0.94277358 0.21383077
1.2492504 0.9445377 0.21950185
1.266258 0.94069564 0.21180406
1.2794347 0.94003785 0.21140611
0.86432463 0.9522078 0.22087263
0.87640929 0.95230001 0.22433428
1.2661612 0.95299286 0.22068703
1.2778267 0.95159686 0.22089219
0.9725368 1.0194763 0.22355194
0.99029255 1.0172293 0.22147648
1.0132893 1.0159307 0.22028665
1.0377656 1.0150207 0.21877822
1.0625445 1.0145323 0.21759327
1.0872623 1.0152767 0.21886751
1.1114832 1.0160933 0.22038946
1.1356254 1.0163698 0.22158377
1.1541946 1.02046 0.22348522
0.869748 1.0485791 0.22427535
0.97307938 1.0281532 0.22440939
0.98851925 1.02665 0.22163013
1.0111636 1.0266328 0.22151504
1.035465 1.025901 0.21984711
1.0630687 1.0257342 0.21886371
1.0872741 1.0258799 0.2197244
1.1105416 1.0263263 0.21989439
1.1371336 1.0265472 0.22090733
1.1585274 1.0273755 0.22307584
1.2656944 1.048346 0.223065
0.86414236 1.0662811 0.22177503
0.87706226 1.0693631 0.22132373
1.2655368 1.0656884 0.22146817
1.277552 1.0688429 0.22297241
0.84802002 1.0894517 0.21902201
0.86283678 1.0880175 0.2176434
0.87735957 1.0886686 0.22057097
1.2667983 1.0882521 0.21848163
1.278839 1.0902451 0.22103439
0.84775698 1.1078185 0.21523753
0.86319691 1.1127875 0.21313113
0.87728322 1.1133163 0.21755575
1.2674471 1.1125388 0.21318756
1.2798197 1.113245 0.2184266
0.84696048 1.1391803 0.21378642
0.86230892 1.138653 0.21140531
0.88109207 1.1381974 0.21641773
0.91535926 1.1422449 0.22111028
0.93822706 1.1422268 0.21544875
0.96146929 1.1414001 0.2087688
0.98605722 1.140918 0.20465775
1.0117232 1.14057 0.20333241
1.0346773 1.1359138 0.20301269
1.0613153 1.1386963 0.2028112
1.0915051 1.1358911 0.20326304
1.1139773 1.1383117 0.20294783
1.1386652 1.1407754 0.2037167
1.1634727 1.1415392 0.2071936
1.1866677 1.1418731 0.21358144
1.2101877 1.1424369 0.2196338
1.2355874 1.1434422 0.22225109
1.2661996 1.1383297 0.21225353
1.2791607 1.1378168 0.2150512
0.84531063 1.1577835 0.21275887
0.86276817 1.1621433 0.21032849
0.88053608 1.1591046 0.21594761
0.91517067 1.1539887 0.22060445
0.93832088 1.1537423 0.21559092
0.9626199 1.1535095 0.20910677
0.98678005 1.1535194 0.20495582
1.0116471 1.1536936 0.20372924
1.0353284 1.152914 0.20198619
1.0629728 1.1524239 0.20106684
1.0890409 1.1536733 0.20187886
1.1132126 1.15323 0.2031519
1.1391492 1.1533902 0.20405756
1.1633571 1.1534785 0.20817755
1.1866781 1.1536515 0.21418583
1.2103512 1.15433 0.21912563
1.2353176 1.1540091 0.22232576
1.2666316 1.1612769 0.21146117
1.2793008 1.1623113 0.2147259
0.84823966 1.1917491 0.2068727
0.86268008 1.1882238 0.20882784
0.87679064 1.1884086 0.21244979
1.2489862 1.1878529 0.21034515
1.2671146 1.1884707 0.20965946
1.2793493 1.1882415 0.2130738
0.84712875 1.2092682 0.20554461
0.8627221 1.2091563 0.20594862
0.8765952 1.2074713 0.20540078
1.2670921 1.2098765 0.20637767
1.2803006 1.2087011 0.20649637
0.84995347 1.225225 0.20058063
0.84721601 0.94669211 0.22689806
0.86355716 0.94493687 0.23170894
0.87773949 0.94678867 0.23018727
1.247928 0.94563591 0.22608972
1.2660173 0.9437573 0.23128752
1.278651 0.94589067 0.2307329
0.84909296 0.95542717 0.23321442
0.86301088 0.96257389 0.23621017
0.87854505 0.96136141 0.23846599
1.2488174 0.96858168 0.23675197
1.2658566 0.96163875 0.23712754
1.27764 0.96093738 0.23975544
0.84973407 0.98706079 0.24388999
0.86425501 0.98779231 0.24147944
0.87902296 0.98669946 0.24362676
1.2483075 0.98148143 0.24019775
1.2652979 0.98765868 0.24252801
1.27733 0.98735565 0.24529491
0.84953296 1.0098813 0.24209517
0.86357009 1.0130687 0.23995622
0.88024104 1.0136811 0.2432535
0.91575903 1.0196426 0.24663609
0.93842649 1.0177401 0.24183385
0.96223575 1.0159267 0.23498434
0.98577923 1.0139533 0.23003332
1.0122609 1.0141306 0.2287682
1.036324 1.0133185 0.22799191
1.0616441 1.0126501 0.22776105
1.0888548 1.012027 0.2281761
1.1137878 1.012668 0.22845906
1.138238 1.0134547 0.22939037
1.1625638 1.0153437 0.23371166
1.1868153 1.0170608 0.24037702
1.2096509 1.0185242 0.24534358
1.236972 1.0198183 0.24738209
1.2652129 1.0132835 0.24118677
1.2781315 1.0136561 0.24474928
0.84530687 1.0323763 0.24544217
0.86386621 1.0370809 0.23449981
0.8807261 1.035322 0.24021374
0.91394389 1.0298694 0.24593771
0.93674481 1.0293682 0.24168158
0.96093833 1.0283693 0.23486833
0.98547024 1.0272459 0.23068678
1.0107963 1.0268732 0.22951092
1.0353314 1.0264125 0.22773123
1.0660022 1.0259598 0.22700939
1.0890229 1.0262144 0.22817832
1.1140348 1.0264418 0.22854145
1.139339 1.0269114 0.22952345
1.1642749 1.027755 0.2325778
1.1874211 1.0286212 0.2394142
1.2113023 1.029832 0.24495389
1.236985 1.0301466 0.24661502
1.265545 1.0370443 0.23615971
1.2783544 1.0374155 0.24058169
1.3035297 1.0319353 0.24918361
0.81692457 1.068881 0.24867921
0.83966476 1.0674634 0.24536902
0.86287194 1.0612317 0.23246568
0.88069832 1.0636182 0.23682445
0.91349405 1.0687209 0.24833167
0.9370873 1.0688342 0.24838938
0.96158069 1.068373 0.24863748
0.98859864 1.0676258 0.24842575
1.0125844 1.0677136 0.2482399
1.0383545 1.067572 0.24843648
1.0640554 1.067907 0.24818456
1.0876046 1.0689355 0.24795423
1.1139516 1.0681561 0.24800716
1.1370959 1.067425 0.24815044
1.1627359 1.0681015 0.2483388
1.1883061 1.0672311 0.24822699
1.2128203 1.0680947 0.24835485
1.2371192 1.0685468 0.24811427
1.2669305 1.0625806 0.23360105
1.2796137 1.0629983 0.23524608
1.3100731 1.0690103 0.24816145
0.8164314 1.0887144 0.24600124
0.83749545 1.0885396 0.24560155
0.86131668 1.0870384 0.242652
0.88630009 1.0886616 0.24367493
0.91241157 1.0889988 0.24621522
0.93737227 1.0887003 0.24578117
0.96262538 1.0889142 0.24578921
0.98780221 1.0884515 0.24630028
1.0126034 1.0890561 0.24581833
1.0375545 1.08858 0.24584498
1.0627195 1.0890914 0.24598333
1.0884156 1.0889115 0.24604379
1.1122024 1.0889735 0.24572749
1.1378956 1.0891838 0.24597146
1.1627381 1.0885664 0.24603258
1.1877692 1.0893735 0.24603049
1.2128074 1.0896032 0.24591817
1.2366471 1.0895201 0.24571119
1.2626809 1.0883323 0.24227782
1.2853864 1.0879583 0.238481
1.30967 1.0900187 0.24658486
0.81718171 1.1135318 0.24261782
0.8371582 1.1125604 0.24120629
0.86274087 1.1127299 0.24020121
0.88764578 1.1124158 0.24252184
0.91209018 1.1130567 0.24223062
0.93721926 1.1126801 0.24163464
0.9623369 1.1123728 0.24224769
0.98717594 1.11304 0.24192405
1.0123688 1.1130821 0.24225371
1.0380954 1.1123655 0.24238777
1.0627897 1.1130112 0.24204852
1.0876431 1.112962 0.24238624
1.1125287 1.1123284 0.24266927
1.1374329 1.1132454 0.24234621
1.16242 1.1133078 0.24263051
1.1874182 1.1123148 0.24292007
1.212338 1.1130509 0.24270692
1.2368984 1.113004 0.24256064
1.2617826 1.1122737 0.24163638
1.2877827 1.113023 0.24303392
1.3098207 1.1128519 0.24451511
0.81649637 1.1374245 0.23992106
0.83684295 1.137696 0.23368604
0.86231053 1.136585 0.23407984
0.88831806 1.1372068 0.23455591
0.91264564 1.1366115 0.23456949
0.93831176 1.1362971 0.23643254
0.96279699 1.136995 0.2374264
0.98693699 1.1374787 0.23732948
1.011894 1.1368436 0.23731969
1.0373342 1.1369977 0.23774871
1.0626849 1.1375463 0.23735705
1.0879877 1.1371595 0.23773862
1.1125512 1.1371213 0.23772104
1.1370845 1.1376083 0.23750617
1.1625787 1.1371404 0.23737009
1.1870551 1.1365321 0.23728856
1.2125037 1.1368191 0.23451169
1.2372537 1.1375422 0.2339408
1.2618389 1.1367402 0.23416261
1.2885728 1.1377277 0.23603399
1.3091197 1.1377125 0.24043328
0.81677681 1.1622149 0.23970488
0.8366003 1.1619674 0.23404257
0.861992 1.1613947 0.23448415
0.88821745 1.1613507 0.23524901
0.91283917 1.1623213 0.23521082
0.93769932 1.163275 0.23644871
0.96264231 1.1639057 0.23706505
0.98674065 1.1627357 0.23715901
1.0115733 1.1626744 0.23670147
1.036767 1.1628318 0.23699671
1.06294 1.1624272 0.23696472
1.0883135 1.1624315 0.23695426
1.113477 1.1632514 0.23688768
1.1374688 1.1634959 0.23713933
1.1619611 1.1630156 0.23714535
1.1879461 1.1635772 0.23719101
1.2129047 1.1625845 0.23617333
1.2375015 1.1619315 0.23493941
1.2621881 1.1617101 0.23508906
1.2888452 1.1610925 0.23660754
1.3092357 1.161628 0.24023765
0.81817508 1.1863873 0.24168563
0.83690262 1.1871758 0.23858751
0.86246371 1.1879852 0.23933691
0.88800544 1.187207 0.24018206
0.9125399 1.1872486 0.23958865
0.93716013 1.187402 0.23973975
0.96213388 1.1874768 0.23986034
0.98677444 1.1876448 0.23997247
1.0122834 1.187487 0.23990493
1.0375592 1.1870975 0.24015693
1.0623912 1.1872401 0.24014916
1.0874871 1.1870265 0.24018601
1.1129341 1.1874332 0.24039257
1.1373757 1.1876632 0.24054106
1.1621764 1.1876392 0.24040651
1.1876478 1.1868106 0.24047013
1.2124186 1.1875724 0.24031636
1.2375956 1.1871413 0.2402579
1.2625363 1.1872289 0.24012171
1.2883165 1.1875628 0.24108627
1.308918 1.1862493 0.24220352
0.8194921 1.2086101 0.24546087
0.83756071 1.21015 0.24455661
0.86248231 1.2099398 0.24492007
0.88784283 1.210019 0.24520133
0.91269314 1.2098289 0.24505152
0.93721139 1.209661 0.24484248
0.96206826 1.2094046 0.24501513
0.98777318 1.2099336 0.24486645
1.0127511 1.2094913 0.24480546
1.0378315 1.2087787 0.24488449
1.0625575 1.2096156 0.24485995
1.0878828 1.2084236 0.24473259
1.1123406 1.2089487 0.24486209
1.1373532 1.2092566 0.24494316
1.1626765 1.2088979 0.24477637
1.1878304 1.2085748 0.24461491
1.2123414 1.2088406 0.24496117
1.237421 1.2088422 0.24469444
1.2619903 1.209024 0.24488084
1.2878356 1.208455 0.24522793
1.3087764 1.2081007 0.24566011
0.81851542 1.2281773 0.24923083
0.83788967 1.2264967 0.24936302
0.86744255 1.2264234 0.24936382
0.88771147 1.2269338 0.2490585
0.90623748 1.2268658 0.24955381
0.93633246 1.2265811 0.2487933
0.96689564 1.226203 0.24904643
0.99091917 1.2266849 0.24908835
1.0128758 1.2268944 0.24911126
1.0420756 1.2273537 0.24872419
1.0606096 1.2266818 0.24903743
1.0864997 1.2266755 0.24853085
1.1157146 1.2273047 0.24880818
1.1388005 1.227053 0.24926549
1.1651825 1.2262326 0.2486766
1.1870619 1.2272382 0.24901578
1.2170702 1.2276592 0.24812225
1.2403646 1.2293161 0.24915388
1.2652762 1.2268199 0.24866545
1.2863889 1.2274681 0.24765605
1.3008579 1.227604 0.24804211
0.81556255 0.96745443 0.27336228
0.83744252 0.96738464 0.27322477
0.86249554 0.96671301 0.27203742
0.88582367 0.96709639 0.27104935
0.91265798 0.96657395 0.27310923
0.93712711 0.967044 0.2731038
0.96236384 0.96762872 0.2729719
0.98735869 0.96735215 0.27308506
1.0121332 0.96819282 0.27296588
1.036974 0.96750039 0.2726883
1.0625082 0.96715844 0.27287883
1.0880802 0.96639657 0.27321309
1.1139493 0.96705836 0.27297333
1.1383364 0.96717435 0.27269703
1.1611505 0.96720827 0.27303579
1.1867281 0.96634436 0.27283162
1.2115858 0.96641672 0.27297771
1.2378885 0.96678054 0.27278519
1.2645366 0.96595752 0.26636478
1.2849779 0.96607345 0.27011177
1.310891 0.96561325 0.27263403
1.3259456 0.96715057 0.27392364
0.81442368 0.98810405 0.27052841
0.83736271 0.98844379 0.26982662
0.86222106 0.98793137 0.26854986
0.88738871 0.98832148 0.2676563
0.9131397 0.98853296 0.27040702
0.93734264 0.98828804 0.27027065
0.96240568 0.98841137 0.27007532
0.98722291 0.98800635 0.27018619
1.0123968 0.98819292 0.27023518
1.0382086 0.98879349 0.26997423
1.0623326 0.98795992 0.27026743
1.0877533 0.98827326 0.27000153
1.1128311 0.98865247 0.27010718
1.1370243 0.98838246 0.27025256
1.1623541 0.98911202 0.27023503
1.1873016 0.98832589 0.27034232
1.2120391 0.98937249 0.27035534
1.2367655 0.9889406 0.26988977
1.2632051 0.9887017 0.26741692
1.2861228 0.9889127 0.26636234
1.3126881 0.98983961 0.27132246
1.3262503 0.98587316 0.2732797
0.81391841 1.0131243 0.26698589
0.83736682 1.0133066 0.2628279
0.86123687 1.0122533 0.26249513
0.88791215 1.013447 0.26246545
0.91185981 1.0125709 0.26253629
0.93737358 1.0114589 0.26477695
0.96235615 1.0114344 0.26604557
0.98694229 1.0125228 0.26618087
1.0121769 1.0127378 0.26619232
1.0370179 1.0130317 0.26601818
1.0630053 1.0126892 0.26626915
1.0878563 1.0127532 0.26617327
1.1130661 1.0121138 0.26635849
1.1375668 1.0128953 0.26626819
1.1622672 1.0119325 0.26665708
1.1874802 1.0125241 0.26569438
1.212952 1.0125958 0.26326627
1.2373338 1.0138199 0.26231128
1.2625434 1.0118905 0.26288301
1.2872753 1.0134871 0.26451749
1.3120172 1.0134397 0.26775739
1.3250061 1.0073769 0.27171987
0.81300247 1.0377308 0.26348925
0.83695829 1.0371009 0.25706658
0.86081809 1.0372536 0.25717786
0.88802058 1.0370595 0.25855246
0.91256535 1.037632 0.25870252
0.93748152 1.0385239 0.26055929
0.96235955 1.0376552 0.26123309
0.98802114 1.03771 0.2614283
1.0121214 1.0379101 0.26113111
1.0378221 1.0375746 0.26113769
1.0626118 1.0376825 0.26145551
1.0876904 1.037372 0.26123023
1.1125479 1.0373502 0.26105103
1.1372736 1.0373765 0.26128429
1.1624148 1.0372269 0.26103041
1.1875386 1.0376565 0.26146019
1.2128422 1.0378357 0.25968972
1.2373757 1.0377128 0.25795707
1.262442 1.0371634 0.25831345
1.2888191 1.0367666 0.25979942
1.3125093 1.0374957 0.26446912
0.81329173 1.062204 0.26066703
0.8367967 1.0608418 0.25490469
0.86144716 1.0608647 0.25559944
0.88787919 1.0617437 0.25611606
0.91246998 1.0613141 0.25564617
0.93752623 1.0617205 0.25553119
0.96259564 1.0609334 0.25599179
0.98749298 1.0617806 0.25596634
1.0123477 1.0617323 0.25602806
1.0367992 1.0613751 0.25626186
1.0629636 1.0614429 0.25605395
1.0879557 1.0615896 0.25619468
1.1121217 1.0614604 0.25647604
1.1371396 1.0622128 0.25621724
1.1625681 1.0615735 0.25652608
1.1880186 1.0621082 0.2561287
1.2124971 1.0619829 0.25619161
1.2369175 1.0619544 0.25594783
1.2607325 1.0617054 0.25624055
1.2884192 1.0618711 0.25750083
1.312764 1.0624267 0.26202792
0.81331253 1.0873621 0.26134443
0.8373341 1.0845681 0.2530787
0.8632828 1.0857288 0.25425631
0.88758129 1.0852009 0.25372475
0.91209775 1.0849227 0.25332609
0.9376111 1.0850738 0.25348434
0.96290159 1.0850917 0.25334361
0.9880842 1.0852039 0.25317627
1.0125594 1.0858942 0.25338179
1.036797 1.0846977 0.25326535
1.061999 1.0850554 0.25318626
1.087575 1.0842705 0.25375158
1.111846 1.0841163 0.25366136
1.1374202 1.0853045 0.25323075
1.1633592 1.0847877 0.2534014
1.1874975 1.0855012 0.25304297
1.2117378 1.0852666 0.25293365
1.2360502 1.0847024 0.2529363
1.2632442 1.0860603 0.25318813
1.2880085 1.0861359 0.25334942
1.31218 1.0873432 0.26104784
0.81450331 1.1125202 0.26189971
0.83945942 1.1069554 0.25174972
0.86385083 1.105358 0.25140408
0.88664317 1.1053698 0.25140518
0.91224867 1.1056309 0.25094876
0.93845558 1.1066288 0.25085759
0.96201962 1.1051947 0.25112423
0.98736435 1.1039673 0.25163209
1.0129228 1.1039158 0.25110671
1.0302814 1.1047989 0.2509436
1.0624408 1.1037074 0.25096613
1.0901966 1.1034393 0.25100148
1.113807 1.1042386 0.25073537
1.1412723 1.1039503 0.25083295
1.1596115 1.1042565 0.25063151
1.185841 1.1038828 0.25071624
1.2065881 1.1035433 0.25056401
1.2398721 1.1021481 0.25085476
1.2641896 1.1033454 0.25069574
1.2889107 1.1035759 0.25076059
1.3117521 1.1123579 0.26206365
0.81578058 1.1370053 0.26247621
1.3114094 1.1373377 0.26191643
0.81718951 1.1620198 0.2622408
0.82521415 1.1703739 0.2741099
1.3113444 1.1624252 0.26246083
0.81912708 1.187161 0.26259536
0.82547277 1.1876082 0.26897255
1.3111697 1.1874598 0.26239631
0.82020521 1.212419 0.2622923
0.83638138 1.2163322 0.25596604
0.86307454 1.2161027 0.25388151
0.88724202 1.2168466 0.25410265
0.91239816 1.2171813 0.25408581
0.93727374 1.2169034 0.25389767
0.96215576 1.2174432 0.2539224
0.98743683 1.2172331 0.25411257
1.0122639 1.2166559 0.25388396
1.0379287 1.2170188 0.25405806
1.0633295 1.2172074 0.25410965
1.0883121 1.2167791 0.25388432
1.1124963 1.2165234 0.25377876
1.1373688 1.2165233 0.25374517
1.1623784 1.2169259 0.25387841
1.1874599 1.2165227 0.25369939
1.2124999 1.2171812 0.25408727
1.237464 1.2169459 0.25401282
1.2622488 1.2167174 0.25425869
1.2869334 1.2166249 0.2540279
1.309973 1.2127743 0.26107022
0.82052344 1.2357111 0.2652306
0.83726031 1.2374573 0.26285321
0.86240172 1.2373999 0.26268899
0.88745481 1.2377561 0.26292425
0.91235775 1.2374761 0.26267764
0.93748921 1.2375685 0.26283139
0.96242589 1.2376337 0.262972
0.98720312 1.2377497 0.26326782
1.0124136 1.2374444 0.26288533
1.0373821 1.2372506 0.26280859
1.0627093 1.2375292 0.26300237
1.0879186 1.2375276 0.26322874
1.1129023 1.2373276 0.26309869
1.1374429 1.2372941 0.26318529
1.1624404 1.2378285 0.26355329
1.1874105 1.2375023 0.26340425
1.2124817 1.2377739 0.26374018
1.2376039 1.2374297 0.26359349
1.2628076 1.2374334 0.26369977
1.2875017 1.2375127 0.26406404
1.3082929 1.2353699 0.26494113
0.82003731 1.2517885 0.27254978
0.83723617 1.2526866 0.27211428
0.86331797 1.2531551 0.2724787
0.88882053 1.2526938 0.27252796
0.91133881 1.2530057 0.2723687
0.93797755 1.2525494 0.27190641
0.96227348 1.2526195 0.27216274
0.98812127 1.252535 0.27178329
1.0121579 1.2532556 0.27213374
1.0369023 1.2526307 0.27142724
1.0634358 1.2528002 0.27158695
1.0863479 1.2525246 0.27130824
1.1127799 1.2529708 0.27137157
1.1384131 1.2533132 0.27184048
1.1631445 1.2533363 0.27181998
1.1863012 1.2535629 0.27199653
1.2116973 1.2537119 0.27164724
1.2387536 1.2531782 0.27126169
1.262413 1.2534273 0.27163348
1.2870126 1.2535028 0.27167878
1.3081237 1.2532096 0.2711879
0.79742652 0.8132689 0.29380277
0.8129701 0.81215733 0.29148439
0.83781028 0.8119027 0.29139945
0.8621788 0.81146032 0.29164204
0.88708401 0.8120724 0.29177687
0.91211879 0.81204635 0.29165247
0.93728799 0.81188738 0.29185343
0.96209383 0.81189275 0.29206386
0.98732537 0.81183612 0.2921246
1.012269 0.81180835 0.29218447
1.0373257 0.81174076 0.29230866
1.0629418 0.81214947 0.29233819
1.0876756 0.81183994 0.29229152
1.112105 0.81191194 0.29260659
1.1377268 0.81235445 0.29259154
1.1622968 0.81225348 0.29243127
1.1873741 0.81211942 0.29262051
1.2124649 0.81243932 0.29257935
1.2377975 0.81245583 0.29258436
1.2624896 0.81252253 0.29271704
1.2877389 0.8127411 0.29253966
1.3123202 0.81335157 0.29274133
1.328613 0.81382608 0.29353765
0.79837245 0.83608824 0.29454687
0.81231743 0.83760875 0.29282555
0.83754647 0.83740836 0.29241547
0.86250812 0.83701384 0.29221269
0.88738096 0.83740109 0.29240578
0.9120295 0.83728838 0.29239529
0.93743515 0.83758277 0.292788
0.962421 0.83691269 0.29282025
0.98732805 0.83634514 0.29266128
1.0126178 0.83702743 0.29303113
1.0376951 0.83678132 0.29294178
1.0629718 0.837394 0.29306856
1.0880349 0.83703983 0.2930544
1.1127684 0.83676803 0.29312414
1.1377481 0.83715504 0.2934424
1.1626523 0.83695877 0.29327765
1.187888 0.83699989 0.29352632
1.2125229 0.83717906 0.29364535
1.2378812 0.83714145 0.29375103
1.262868 0.83701324 0.29362392
1.287479 0.83676642 0.29391509
1.3126357 0.83712125 0.2939136
1.3284299 0.83608544 0.29482183
0.79838836 0.8627696 0.29529881
0.81203055 0.8625015 0.29406807
0.83691657 0.86276174 0.29342291
0.86207473 0.86219531 0.29350206
0.887151 0.86269021 0.29356387
0.91236067 0.86220294 0.29351741
0.9377557 0.86252367 0.29376474
0.96302378 0.86273068 0.29382569
0.98776412 0.86212307 0.29389718
1.0123025 0.86225045 0.29393643
1.0371277 0.86241436 0.29380608
1.0629067 0.8625049 0.29409939
1.0879003 0.86241132 0.29424
1.1122563 0.86226994 0.29425138
1.1376734 0.86260986 0.29414067
1.16318 0.8622154 0.29445979
1.1878066 0.8624894 0.29437476
1.2134341 0.86213619 0.2943708
1.2380668 0.86208481 0.29472885
1.2617265 0.86272573 0.29463416
1.2875099 0.86197054 0.29472598
1.3124456 0.86262912 0.29465672
1.3272204 0.86173892 0.29567304
0.79888195 0.88478673 0.2955521
0.81148511 0.88789582 0.2932623
0.83705586 0.8878088 0.29254276
0.86234123 0.88741255 0.29253352
0.88733852 0.88784033 0.29259709
0.91231358 0.88783121 0.29283586
0.93759334 0.88774323 0.29290769
0.96242952 0.88850635 0.29299951
0.98750514 0.88793874 0.29298118
1.0124156 0.88821125 0.29307809
1.0375617 0.88766277 0.2932674
1.0629792 0.88846648 0.29325601
1.0877459 0.88821006 0.29344708
1.1124456 0.88811249 0.29337585
1.1373799 0.88817525 0.29357108
1.1625719 0.88813263 0.29348752
1.1878737 0.88794518 0.29361039
1.212906 0.88841784 0.29360214
1.2378736 0.88844407 0.29392862
1.2626379 0.88804126 0.29368484
1.2879092 0.88783008 0.29400504
1.3126011 0.88818002 0.29402825
1.3270144 0.88810354 0.29580018
0.79955411 0.90682846 0.29289988
0.81096381 0.91276622 0.29097098
0.83723831 0.91247785 0.28909621
0.86222774 0.912332 0.28924927
0.88734025 0.91278124 0.28952026
0.91242248 0.9126429 0.28976488
0.93744099 0.91265327 0.28965446
0.96248263 0.91244441 0.28996816
0.98741162 0.91210765 0.28996056
1.0126686 0.91248423 0.29003564
1.0374389 0.91248977 0.29021922
1.0627513 0.91231221 0.29007849
1.0878198 0.91237962 0.28993133
1.1120695 0.91296512 0.29027224
1.1376514 0.91247916 0.29006687
1.161944 0.91230083 0.29034698
1.1874806 0.91232574 0.29039544
1.2123363 0.91265845 0.29052693
1.2376587 0.91237444 0.29021552
1.262414 0.91251403 0.29069129
1.2877332 0.9127627 0.29068443
1.3135664 0.91280037 0.29164445
1.3273618 0.91234845 0.29292345
0.79934502 0.93097514 0.29045016
0.81089413 0.93785739 0.28761855
0.83731478 0.93697739 0.28392768
0.86231077 0.93729889 0.28387222
0.88746244 0.93716478 0.28443989
0.91246784 0.93710792 0.28450292
0.93744439 0.93753022 0.28456342
0.96227241 0.93727851 0.28470644
0.98747492 0.93705982 0.28464285
1.0125132 0.93718332 0.28476137
1.0374653 0.93717837 0.28454927
1.0627952 0.93720174 0.28486013
1.0878799 0.93721861 0.2848517
1.11263 0.93749321 0.28489372
1.1372616 0.93747497 0.28498751
1.1626551 0.93781286 0.28496507
1.187485 0.93750787 0.28509271
1.2119946 0.93739831 0.2851615
1.2371485 0.93687642 0.28538439
1.2622548 0.93740821 0.28515017
1.2873516 0.93726975 0.28558469
1.3139229 0.93744367 0.28778714
1.3266616 0.93720376 0.29121184
0.81022 0.96180183 0.28562132
0.83733213 0.95984095 0.27911684
0.86216366 0.95993108 0.28003708
0.88751972 0.96079719 0.2801874
0.91223925 0.96084332 0.28023306
0.93752283 0.96073306 0.28010148
0.96243846 0.96058047 0.28016537
0.98763162 0.96047843 0.27995735
1.0123284 0.96055293 0.28025162
1.0371277 0.96081018 0.28029791
1.062741 0.96103954 0.28044981
1.0879012 0.96073723 0.28019008
1.1129419 0.96115679 0.2806147
1.1376889 0.96100807 0.28066084
1.1624321 0.96128166 0.28058791
1.1874471 0.96129811 0.28068876
1.2124622 0.96110094 0.28047144
1.2374784 0.96103555 0.28053862
1.2624812 0.96122861 0.28080308
1.2879155 0.96162283 0.2812556
1.3157176 0.96275747 0.28555873
1.3259668 0.96031928 0.28789055
0.80930203 0.98722041 0.2866002
0.83634597 0.98362505 0.27791893
0.8627516 0.98507535 0.27847409
0.88841969 0.98541069 0.27788863
0.91279602 0.98433369 0.27787542
0.93719536 0.98419106 0.27799514
0.9615292 0.98362267 0.27799174
0.98772311 0.98384917 0.27836639
1.0133011 0.98563242 0.27763939
1.0379817 0.98479944 0.27780834
1.0628135 0.98553371 0.27771884
1.0871495 0.98446381 0.27799317
1.1120248 0.98461974 0.2777237
1.1386675 0.98421508 0.27790204
1.1632246 0.98388648 0.27801755
1.1875176 0.98418838 0.27785307
1.2132958 0.9833101 0.27790275
1.2360479 0.98344803 0.27746597
1.2623731 0.98419917 0.27805665
1.2880244 0.98483562 0.27770865
1.317139 0.98702258 0.28515333
1.3255199 0.98483437 0.287314
0.80987591 1.0126324 0.28828794
0.8378787 1.0149472 0.29547167
0.86244023 1.0186721 0.29658207
0.88720673 1.0160414 0.29487085
0.91325599 1.0142447 0.2922678
0.93830514 1.0156112 0.29462636
0.96337891 1.0150877 0.29379666
0.98604304 1.0161619 0.29604217
1.0136328 1.0157461 0.29309499
1.0370315 1.0140011 0.29298508
1.0642092 1.0161784 0.29455772
1.0858757 1.0162643 0.29378256
1.1130251 1.0155265 0.29394758
1.135566 1.0174787 0.29700679
1.1622392 1.0146637 0.29546458
1.1861541 1.0160638 0.29736131
1.210976 1.0154885 0.29640201
1.2365314 1.0161828 0.29779509
1.2623568 1.016444 0.29742634
1.2890297 1.0160099 0.29534927
1.3181298 1.0126179 0.28770819
1.3252645 1.0059857 0.29674587
0.81249654 1.0376313 0.28936118
0.83726799 1.0391891 0.29711905
0.86237991 1.0389998 0.29726148
0.88780373 1.0384544 0.29729983
0.91274965 1.0389115 0.29732257
0.93799406 1.0393043 0.29723537
0.96210176 1.0389411 0.29740787
0.98737198 1.0394238 0.29744366
1.0128081 1.0401666 0.29739857
1.0393348 1.038093 0.29740804
1.0630226 1.0402966 0.29734075
1.0864333 1.0395172 0.29731783
1.1115482 1.0393101 0.29744247
1.1373824 1.0389302 0.29742065
1.1612991 1.039041 0.29720643
1.1872137 1.0384347 0.2973218
1.2124665 1.0382545 0.297409
1.2375512 1.0392855 0.29694659
1.2630863 1.039376 0.29730386
1.2876631 1.0396503 0.29723611
1.3155891 1.0378568 0.28849798
0.81367528 1.0624273 0.28828916
0.83761066 1.0630715 0.29495433
0.86236197 1.062652 0.29510614
0.88689077 1.0629125 0.29514894
0.91229892 1.0637221 0.2950744
0.93711835 1.0636487 0.29517466
0.96263313 1.0632012 0.29532823
0.98756021 1.0636899 0.29531112
1.0128747 1.063566 0.29536116
1.0371416 1.063776 0.29570225
1.0620308 1.0641437 0.2953833
1.0871818 1.0637769 0.29537764
1.1124761 1.0634837 0.29545566
1.1374797 1.0637729 0.29549217
1.162221 1.0643711 0.29563186
1.1876469 1.0638086 0.29546434
1.2125227 1.0643184 0.2958996
1.2377365 1.0639718 0.29584411
1.2624954 1.0641315 0.29574037
1.2878636 1.0649192 0.29607639
1.3132933 1.0627615 0.28888416
0.81521809 1.0871522 0.28703809
0.83726943 1.088733 0.29171896
0.8620252 1.0881982 0.29213578
0.88766849 1.0875258 0.2923373
0.91246039 1.0881541 0.29250139
0.93683755 1.0879347 0.29274219
0.96196198 1.0877585 0.29307726
0.98698944 1.0880113 0.29323256
1.0113996 1.087836 0.29312125
1.037215 1.088171 0.2934145
1.0630794 1.0886886 0.29358828
1.0878969 1.0881083 0.29378119
1.1123235 1.0883477 0.29395902
1.1375602 1.0882684 0.29422155
1.1624385 1.0883095 0.29395032
1.1873622 1.0883213 0.29454306
1.2126269 1.0884092 0.29443914
1.2378662 1.0881978 0.29458609
1.2625711 1.0884714 0.29459143
1.287078 1.0887454 0.29469508
1.3110967 1.0870546 0.28862438
0.81621516 1.1118767 0.28531614
0.83806664 1.1131035 0.28927305
0.86249501 1.1122921 0.2893219
0.88709295 1.1125247 0.28945988
0.91277152 1.1125755 0.28984076
0.93708634 1.1130526 0.2900264
0.96219552 1.1123534 0.28987876
0.98714179 1.1124039 0.29030275
1.0123509 1.1129546 0.29017791
1.037558 1.1124117 0.29045081
1.062602 1.1129107 0.29003304
1.0877051 1.1127183 0.2911084
1.1122504 1.1128265 0.29028356
1.1373571 1.1125541 0.29100809
1.1627257 1.1132641 0.2909331
1.1871165 1.11291 0.2905699
1.2127087 1.1122456 0.29108572
1.2374392 1.1125448 0.29118159
1.2620708 1.1129656 0.29127231
1.2881951 1.1126757 0.29124823
1.310086 1.1119109 0.285925
0.81771731 1.1366594 0.28285632
0.83751452 1.1374605 0.28551516
0.86253667 1.137821 0.28561416
0.88785332 1.1374192 0.28612638
0.9124586 1.1380212 0.28628451
0.93710947 1.1377941 0.28597969
0.96312028 1.1376528 0.28658608
0.98756206 1.1370806 0.28659323
1.0137949 1.1375531 0.28678146
1.0383115 1.1376359 0.28717309
1.0631626 1.1374419 0.28683957
1.087217 1.1380105 0.28695086
1.1128991 1.137494 0.28728682
1.1373575 1.1370128 0.28736043
1.1625383 1.1382678 0.28728107
1.1879849 1.1379449 0.28755432
1.2122855 1.1373634 0.28785452
1.2384628 1.1376163 0.28767249
1.2621067 1.1380007 0.28803667
1.2871002 1.1372299 0.28778684
1.3091121 1.1372913 0.28456348
0.81903738 1.1625664 0.28129315
0.83721024 1.1624327 0.28333431
0.86249846 1.1628045 0.28370458
0.88782942 1.1625507 0.28382677
0.91236913 1.1627623 0.2837103
0.93791676 1.1622729 0.28392547
0.96315277 1.1629317 0.28459972
0.98778498 1.1626846 0.28413484
1.0128574 1.162425 0.28470695
1.0373745 1.162591 0.28452465
1.0625179 1.1626526 0.28502041
1.0873669 1.1627227 0.28429255
1.1125762 1.1625396 0.28491271
1.1383306 1.1628543 0.28487098
1.16328 1.1626743 0.28489545
1.1884197 1.1622956 0.28544
1.2134045 1.1625143 0.28506726
1.2380246 1.162776 0.28535295
1.2628462 1.1628311 0.28541195
1.2872293 1.1621559 0.28566909
1.3089018 1.1626828 0.28295556
0.8201502 1.1888478 0.28458753
0.83751905 1.1870654 0.28824958
0.86247808 1.187351 0.2887882
0.8875978 1.1871822 0.28889531
0.91263664 1.1877463 0.28922012
0.93772048 1.1872857 0.28912497
0.96246958 1.1876829 0.28952023
0.98754841 1.1872158 0.28924847
1.0129952 1.1874127 0.28943792
1.0377777 1.1875235 0.28973886
1.0628425 1.1873536 0.28954473
1.0876055 1.1873939 0.28995323
1.1124495 1.187288 0.28980741
1.1374713 1.1877468 0.29009789
1.1627176 1.1873302 0.29014492
1.187691 1.1873467 0.29006439
1.2126348 1.1875572 0.29030886
1.2376646 1.1873479 0.29023737
1.2625893 1.187333 0.29030517
1.2875248 1.1869408 0.29039145
1.3093128 1.1881261 0.28627473
0.82040703 1.2123513 0.28795865
0.83453906 1.207105 0.29418787
0.86237293 1.2049732 0.29579949
0.88769126 1.2053721 0.29594755
0.91349083 1.2052463 0.29622331
0.93777114 1.2053754 0.29625785
0.9618507 1.2053006 0.29574144
0.98690021 1.2054728 0.29630393
1.0121764 1.2052255 0.29581645
1.0378954 1.2055724 0.29586536
1.0619675 1.2046469 0.29580507
1.0869719 1.2055345 0.2954964
1.1115197 1.205369 0.29616573
1.1369548 1.205639 0.29589912
1.1616955 1.2055151 0.29594454
1.1871631 1.2052835 0.2956655
1.2116102 1.2052652 0.29578039
1.2384458 1.2053647 0.29540169
1.2628407 1.205546 0.29632333
1.2878604 1.2049243 0.29654998
1.3087773 1.2117712 0.28791189
0.82048368 1.2375497 0.28779066
0.83241981 1.2426652 0.28261101
0.86285508 1.2475733 0.27767387
0.8888641 1.2474809 0.27783734
0.91325843 1.2474227 0.27716443
0.93768078 1.2473931 0.27730632
0.96192515 1.2473245 0.27745497
0.98882097 1.2472897 0.27748516
1.0120312 1.2476108 0.27741185
1.0380818 1.2479181 0.27751905
1.0631306 1.2473766 0.27734354
1.0879271 1.2477217 0.27780309
1.1133626 1.2481134 0.27755585
1.137342 1.2483035 0.27765501
1.1618307 1.2482016 0.27788547
1.1877226 1.2478012 0.27739054
1.2128018 1.2484647 0.27791336
1.2373531 1.248073 0.27754125
1.2619154 1.2478805 0.27711284
1.2889721 1.2478533 0.27705619
1.3077972 1.2377037 0.2872498
0.82066709 1.2588034 0.28988296
0.83730882 1.2614827 0.28805688
0.86232579 1.2614667 0.28770143
0.88770998 1.2616054 0.2880159
0.91258186 1.2615032 0.28792441
0.93739933 1.2611917 0.28739053
0.96233678 1.2614174 0.28773534
0.98740256 1.2614211 0.28766409
1.0126387 1.2614291 0.28794298
1.0375723 1.2613224 0.28781933
1.0624828 1.2613711 0.28781927
1.0875822 1.2612264 0.28778332
1.1126513 1.261364 0.28811106
1.1378049 1.2614202 0.28793886
1.1627703 1.261277 0.28806111
1.1876187 1.2610534 0.28780481
1.2126272 1.2611159 0.28796116
1.2374382 1.2609453 0.2878772
1.2628707 1.2611575 0.28827837
1.2879406 1.2610645 0.28805003
1.3058228 1.2587348 0.28949541
0.79750741 0.81378299 0.30842176
0.81196457 0.81314856 0.31074819
0.83789849 0.81207889 0.31092623
0.86295533 0.81232411 0.31141099
0.88779593 0.81210327 0.31110278
0.91260421 0.81208181 0.31133041
0.93752217 0.81207538 0.31134084
0.96259069 0.81213945 0.31138742
0.98770869 0.81258446 0.31188244
1.0126375 0.81211561 0.31165755
1.0377229 0.81228286 0.31179249
1.0628527 0.8120364 0.31195745
1.0875885 0.81188041 0.31161851
1.1126814 0.81239533 0.3122035
1.1376064 0.8120839 0.31205517
1.1622986 0.81231993 0.3122206
1.187658 0.81198698 0.31183207
1.2127657 0.81167656 0.31177303
1.2374564 0.81217498 0.31217584
1.2626328 0.81219018 0.31218776
1.2875146 0.8121326 0.3124302
1.3123891 0.81184369 0.31203088
1.3285289 0.81436104 0.30827102
0.79816061 0.83655792 0.31185511
0.81046975 0.83762395 0.31481305
0.83768737 0.83675748 0.31706315
0.86251765 0.83678824 0.31720293
0.88780755 0.83685136 0.31721213
0.9125219 0.8366918 0.31696227
0.9376412 0.83706647 0.31710047
0.96246397 0.83682543 0.31713271
0.98758012 0.83664733 0.31733546
1.0125903 0.83653355 0.31703213
1.0375763 0.8366214 0.31739765
1.0628629 0.8362295 0.31693301
1.0880457 0.83642173 0.3175137
1.1127006 0.83694899 0.31739914
1.1371946 0.83640575 0.31747514
1.162358 0.83636695 0.31776342
1.1872745 0.8365919 0.31761533
1.2125506 0.83679003 0.31834939
1.2378149 0.8366363 0.3179813
1.2624255 0.836456 0.31795648
1.2877886 0.83655787 0.31823161
1.3132589 0.83728939 0.31684443
1.328476 0.83719522 0.31157473
0.79864621 0.86238676 0.31214726
0.80901372 0.86251682 0.31523195
0.83743501 0.86265159 0.31765503
0.86294442 0.86249399 0.31752086
0.88754869 0.86234808 0.31779665
0.91227514 0.86192191 0.31745538
0.93716139 0.86205411 0.31696767
0.96253872 0.86196667 0.31721437
0.9872672 0.86249894 0.31701759
1.012607 0.8619777 0.31694105
1.0372173 0.86152482 0.31713876
1.0623052 0.86147249 0.31723389
1.0874822 0.86211979 0.31595826
1.1127357 0.86220795 0.31636617
1.1374185 0.86205745 0.31623417
1.1621712 0.8617335 0.31679997
1.1872399 0.86200035 0.31518948
1.2126664 0.86218274 0.31603053
1.2380497 0.86204934 0.31604224
1.2623637 0.86231518 0.31554303
1.2871352 0.86207354 0.31511959
1.3164346 0.86283278 0.313279
1.3272622 0.86208761 0.31231353
0.79933763 0.88532412 0.31074259
0.80893016 0.88736975 0.31471208
0.83758742 0.88738722 0.31853995
0.86206639 0.88726157 0.31921345
0.88772953 0.88671893 0.31870127
0.91283715 0.88694549 0.31862277
0.93747491 0.88683593 0.31864676
0.96250308 0.88693672 0.31825691
0.98742884 0.88730812 0.31820941
1.0122855 0.88650346 0.31826708
1.0367045 0.88655764 0.31831914
1.0619829 0.88717037 0.31873053
1.0875726 0.88707829 0.31857476
1.1125363 0.88655126 0.31820804
1.1374518 0.88649917 0.31838813
1.1626464 0.88647962 0.31803265
1.1878071 0.88602489 0.31775141
1.2123566 0.88666433 0.31846473
1.2371119 0.88640642 0.31809926
1.262364 0.88666642 0.31808236
1.2871087 0.88610011 0.31786004
1.3163648 0.88679016 0.31425238
1.3266749 0.88694042 0.31236264
0.8097266 0.91235536 0.3143771
0.83686119 0.91334701 0.31942245
0.86189646 0.91335356 0.31948054
0.88753104 0.91217339 0.31925359
0.91278595 0.91293859 0.31959128
0.93740296 0.91358465 0.31976172
0.96251345 0.91300136 0.31988719
0.98757911 0.91284746 0.31981829
1.0123144 0.91306335 0.32001814
1.0368931 0.9136405 0.32001159
1.062434 0.91428053 0.32004476
1.0879574 0.91325337 0.31997567
1.112717 0.91364986 0.32024813
1.1375641 0.91325259 0.32017162
1.1628023 0.91340488 0.32000318
1.1878653 0.91377449 0.3201924
1.212738 0.91367829 0.32047048
1.2381514 0.91366607 0.32041061
1.2628798 0.91411465 0.32056138
1.2872527 0.91381121 0.32050833
1.316667 0.91277194 0.31564519
1.3267038 0.91236478 0.31232506
0.81077403 0.93687236 0.31347567
0.83710146 0.93762398 0.31699246
0.86214632 0.93780059 0.31714949
0.88761497 0.93740571 0.31739452
0.91247284 0.9376682 0.31765458
0.93767774 0.93785369 0.31755412
0.96221465 0.93755746 0.31767422
0.98703825 0.93782383 0.31796202
1.0121093 0.93784285 0.31785667
1.0372237 0.93804276 0.31816903
1.0627481 0.93762434 0.31824481
1.0877912 0.93786532 0.31859896
1.1128588 0.93774825 0.31861231
1.1375171 0.93783945 0.31879631
1.1626511 0.93784893 0.31885052
1.1873994 0.93760967 0.31898856
1.2128199 0.93788743 0.31917098
1.2378494 0.93771666 0.3192721
1.2625784 0.93785107 0.31930235
1.2875385 0.93750119 0.31947589
1.3154123 0.93718326 0.31578746
1.326664 0.93591499 0.31157401
0.81207705 0.96226525 0.31101039
0.83724719 0.96216059 0.31357551
0.86235869 0.96214634 0.31390151
0.88724732 0.96243179 0.31392267
0.91257262 0.96262968 0.31392765
0.93734682 0.96215796 0.31445366
0.96260262 0.96236336 0.31436878
0.98742676 0.96275759 0.31442824
1.0126364 0.96237278 0.31441459
1.0379056 0.96263838 0.31442094
1.0635911 0.96211576 0.31522068
1.0877116 0.96246964 0.31471106
1.1122174 0.9625836 0.31510594
1.137431 0.96217728 0.31515288
1.1622753 0.9624697 0.315182
1.1874363 0.96239734 0.31531632
1.2125448 0.96221358 0.31553051
1.2373571 0.96221673 0.31546581
1.2625771 0.96272862 0.31546891
1.2872919 0.96182084 0.31567815
1.3141205 0.96236694 0.31307876
1.3261263 0.96022671 0.30894771
0.81369746 0.9872998 0.30819386
0.83728802 0.98768872 0.30930737
0.86234349 0.98773396 0.30967593
0.88730431 0.98806882 0.30953458
0.91249317 0.9880693 0.30984372
0.93789411 0.98767477 0.30992982
0.96235985 0.9877044 0.30999947
0.98777151 0.98791146 0.30997434
1.0124176 0.987445 0.31058958
1.0367905 0.987881 0.31049293
1.0621457 0.98838276 0.31042957
1.087966 0.98744023 0.31066915
1.1123502 0.98760343 0.31078908
1.1373703 0.98777062 0.31110001
1.1622975 0.98752987 0.31106368
1.1877776 0.98776448 0.3109915
1.2127527 0.98757154 0.31121528
1.237747 0.98732275 0.31144667
1.2626437 0.98770344 0.31131244
1.287413 0.98773658 0.31143153
1.3134532 0.9873383 0.30972975
1.3257599 0.98351669 0.3053509
0.81475109 1.0115103 0.30571437
0.83755684 1.0116625 0.30613148
0.86289746 1.0120435 0.30602199
0.88747889 1.0121764 0.3063674
0.91194284 1.0117135 0.30630025
0.9372977 1.0119879 0.30641848
0.96203113 1.0118375 0.30683374
0.98756659 1.0118216 0.30692914
1.0121717 1.0118936 0.30705467
1.0369765 1.0119519 0.30699179
1.0631046 1.011683 0.3069669
1.0880133 1.0118823 0.30715102
1.1125491 1.0121493 0.30722159
1.1378682 1.011624 0.30750054
1.1630057 1.0121522 0.30749434
1.1877768 1.0121024 0.30767581
1.2124534 1.0120351 0.30778444
1.2376521 1.0123222 0.30790973
1.2623664 1.0120206 0.30797693
1.2872953 1.0122105 0.30796051
1.3123243 1.0119015 0.30722126
0.81523567 1.0359361 0.3042458
0.83764601 1.0358778 0.30466765
0.86225945 1.0363232 0.30435345
0.88743687 1.0366304 0.30461794
0.91277379 1.0362657 0.30467594
0.93759167 1.0359082 0.30478457
0.96292508 1.0360763 0.30463085
0.98769259 1.0360143 0.30481014
1.0125089 1.0363319 0.30469921
1.0378001 1.0366762 0.30468282
1.0618153 1.0356892 0.30505618
1.0872774 1.0368437 0.30503407
1.1130196 1.0361973 0.30490682
1.137915 1.036677 0.3050524
1.1622337 1.03677 0.30495074
1.1873422 1.0371795 0.3049131
1.212249 1.0365144 0.30506545
1.237674 1.0370165 0.30498067
1.262579 1.036384 0.3049714
1.2875501 1.036805 0.30494037
1.3102574 1.0364043 0.30458748
0.81651264 1.0606951 0.30304441
0.83733475 1.0607347 0.30325341
0.86322623 1.0608279 0.30326894
0.88825607 1.0614094 0.30307034
0.91240698 1.0601012 0.30293268
0.93804717 1.0598445 0.30321258
0.96354997 1.0613858 0.30310771
0.98760313 1.0603676 0.30298272
1.0126791 1.0610671 0.30313462
1.0370551 1.0611521 0.3030608
1.063624 1.0616385 0.3027873
1.0887746 1.0601175 0.30291447
1.1124164 1.061096 0.3028681
1.1369274 1.0612839 0.30286926
1.1629958 1.0608822 0.30275005
1.1873046 1.0608761 0.3026613
1.2122812 1.0611992 0.30272695
1.2374531 1.0616251 0.30255926
1.2622259 1.0613425 0.30248293
1.2873436 1.0613234 0.30243531
1.3082628 1.0602872 0.30241585
0.81757456 1.0828111 0.30128109
0.83633816 1.0824684 0.30131549
0.86022985 1.0826806 0.30112222
0.88665897 1.0825931 0.30157876
0.91241258 1.0836985 0.3011111
0.93657237 1.0823374 0.30122343
0.96073604 1.0819522 0.30125922
0.9877072 1.0828111 0.30107018
1.0107003 1.081082 0.30104679
1.036363 1.0823306 0.30097577
1.0647056 1.0811495 0.30103895
1.0905362 1.0798144 0.30104694
1.112717 1.0819396 0.30090901
1.1373727 1.0800619 0.30094364
1.1614847 1.0796387 0.30096963
1.1864979 1.0783776 0.30093277
1.2112271 1.0801373 0.30074951
1.2369696 1.0811582 0.30073974
1.2622641 1.0798504 0.30082545
1.2884563 1.0795778 0.30088863
1.3079352 1.07853 0.30082881
0.82332194 1.1955588 0.30200794
0.83998519 1.1956818 0.30188426
0.8633889 1.1969863 0.3016395
0.88712549 1.1962088 0.30194536
0.91273248 1.1971031 0.30149072
0.93693143 1.197855 0.30194071
0.96308535 1.1966311 0.30212286
0.98284674 1.1974036 0.30184516
1.0086809 1.1968397 0.3014406
1.0373009 1.1970967 0.30190617
1.0637546 1.1982177 0.30186459
1.0890802 1.1974111 0.3018679
1.1140033 1.1976093 0.30186462
1.1384628 1.196902 0.30141926
1.1623746 1.1972643 0.30144581
1.1909486 1.1970947 0.30154535
1.2122171 1.197495 0.30108249
1.2354274 1.197475 0.30180597
1.2622674 1.1974558 0.30164686
1.288398 1.1979387 0.30132416
1.3050778 1.1981049 0.30190271
0.81994462 1.2172158 0.30869588
0.83700293 1.2158942 0.30996543
0.86211658 1.2159189 0.30985233
0.88758743 1.2150556 0.30932286
0.91255832 1.2156883 0.31014851
0.93705124 1.2156821 0.31021073
0.96236074 1.2150356 0.30965787
0.98788506 1.2152946 0.31018624
1.0121933 1.2153056 0.31035441
1.0370226 1.214756 0.30975193
1.0626209 1.2150877 0.31026453
1.0874822 1.2149069 0.30995753
1.1127028 1.2148235 0.3102271
1.1372824 1.2146835 0.31022033
1.1628171 1.2146384 0.31004703
1.1879122 1.2143866 0.31010029
1.2126386 1.2145606 0.31050456
1.2380071 1.2146189 0.31032616
1.2628329 1.2146688 0.31060615
1.2874144 1.2146107 0.31085131
1.306277 1.2161326 0.30907628
0.82032585 1.237245 0.31313056
0.83404326 1.2301879 0.31876919
0.86197007 1.2270045 0.32118008
0.88756126 1.2269578 0.32132754
0.9122591 1.2269396 0.32120377
0.93714482 1.2269481 0.32111287
0.96317214 1.2270739 0.32171717
0.98676479 1.2273531 0.32144976
1.0131764 1.2271961 0.32160088
1.0383099 1.2272903 0.32097885
1.0641074 1.2275001 0.32112908
1.0892835 1.2274051 0.32075182
1.1139597 1.2273114 0.32141179
1.1387031 1.2268977 0.32070178
1.1619807 1.2274077 0.32057363
1.1876882 1.2273954 0.32041094
1.2127125 1.2273672 0.31985143
1.2363788 1.2276726 0.32104537
1.2618444 1.2270806 0.3201156
1.2869387 1.2275803 0.32087141
1.3067187 1.2373725 0.31282613
0.82033271 1.2627128 0.31232724
0.8366375 1.2706671 0.30887249
0.86267138 1.2716404 0.30806535
0.88748336 1.271762 0.30812052
0.91261595 1.2718947 0.30841461
0.9377861 1.2717867 0.30815384
0.96252412 1.2716517 0.30790931
0.98758268 1.27179 0.3083908
1.012509 1.2718621 0.30831325
1.0374107 1.2718736 0.30854556
1.0624586 1.2718172 0.30858865
1.0874482 1.2719111 0.30855435
1.1126721 1.2718096 0.308678
1.1379102 1.2717355 0.30847174
1.1625581 1.2717838 0.30884281
1.1876955 1.271641 0.30864397
1.2128634 1.2718444 0.30885518
1.2374127 1.2717184 0.3086375
1.262347 1.2715993 0.30867106
1.2877098 1.2716856 0.30924702
1.3062611 1.2634816 0.31193116
0.8208847 1.2771728 0.31946597
0.83748579 1.2768188 0.31823635
0.86204404 1.277105 0.31856176
0.88779509 1.2769611 0.3184858
0.91254789 1.2770691 0.31856251
0.93651575 1.2771811 0.31838933
0.96242297 1.2769115 0.31802437
0.98705155 1.2772796 0.31888357
1.0118159 1.2771643 0.31859088
1.037563 1.2772589 0.31886148
1.0637064 1.2770687 0.31813362
1.0879198 1.277133 0.31831762
1.1119139 1.2773504 0.3187001
1.137284 1.2772378 0.3186354
1.1630712 1.2771949 0.31855759
1.1881895 1.2772691 0.31846839
1.2128389 1.2772801 0.31856591
1.2378231 1.2770994 0.31847003
1.2620142 1.2773464 0.31874129
1.2871473 1.2771671 0.31808066
1.3056269 1.276906 0.31826484
0.7986415 0.84423614 0.32574069
0.81252271 0.84171885 0.32651916
0.83731472 0.84179878 0.32665771
0.86288613 0.84254044 0.32656801
0.8881042 0.84303695 0.32665095
0.91308004 0.84182483 0.32648116
0.93736422 0.84233791 0.3266398
0.96319938 0.84243572 0.32646665
0.98689187 0.84284532 0.32641223
1.0127732 0.84318155 0.32638708
1.0374544 0.8426314 0.32638615
1.0614766 0.84234732 0.3261753
1.0868243 0.84259027 0.32641968
1.1134346 0.84302992 0.32625249
1.1378913 0.84413654 0.32625341
1.1621315 0.84311336 0.32622296
1.1870124 0.84326673 0.32610208
1.2126646 0.84310633 0.32599682
1.23859 0.84394139 0.32618889
1.2635264 0.84419578 0.32601324
1.2866154 0.8440274 0.32596561
1.3115033 0.84429151 0.32597056
1.3263042 0.84359324 0.32625252
0.79893929 0.86360383 0.32787931
0.81327909 0.86242723 0.32770073
0.83801621 0.8621915 0.32795641
0.86232036 0.86225408 0.32793164
0.88687551 0.86240232 0.32784018
0.91164398 0.86332083 0.32787532
0.93728971 0.8623634 0.3279514
0.96268266 0.86239266 0.32776862
0.98831123 0.86300999 0.32804397
1.0129228 0.86285824 0.32780543
1.0377526 0.86281282 0.32775092
1.0628296 0.86253107 0.32779729
1.0882038 0.86179709 0.32771575
1.1125706 0.86277843 0.32771292
1.1374731 0.86315513 0.3276327
1.1629928 0.86230749 0.32769549
1.1875277 0.86271769 0.32755372
1.2122293 0.862306 0.3275156
1.2381498 0.86193037 0.3275409
1.2627636 0.86303008 0.32744557
1.2878416 0.86269879 0.32746005
1.3125236 0.86236763 0.32734516
1.3259857 0.86439991 0.32689843
0.79840517 0.87569427 0.32535303
0.81341606 0.88696438 0.32776082
0.83788949 0.88727188 0.32817689
0.86246389 0.88710797 0.32801229
0.88713861 0.88688254 0.32799146
0.91219985 0.88756549 0.32802457
0.93653905 0.88736832 0.3279154
0.96166015 0.8870312 0.32792413
0.98732013 0.88724309 0.32799536
1.0128666 0.88725185 0.32785887
1.037425 0.88784432 0.32790127
1.063228 0.88744402 0.32790589
1.0880108 0.88746357 0.32780913
1.1130261 0.88717717 0.32782578
1.138357 0.88797283 0.32775229
1.1634803 0.88739759 0.32778552
1.1869057 0.8871994 0.32769549
1.2122113 0.88738424 0.32762057
1.2377685 0.88722122 0.32770091
1.2624996 0.8879469 0.32748899
1.2877342 0.88754106 0.32760572
1.3121641 0.88741493 0.32758716
1.3266901 0.88687229 0.32671326
0.81482744 0.91120481 0.32758179
0.83877587 0.90982127 0.32746673
0.86334014 0.9112041 0.32754746
0.88832849 0.91012919 0.3275167
0.91266233 0.91112775 0.32737148
0.93690401 0.91089398 0.32742089
0.96232104 0.91070616 0.32727298
0.98718405 0.91056645 0.3273437
1.0124444 0.91021574 0.32736123
1.0378524 0.91108257 0.32705304
1.0620545 0.91072279 0.32710093
1.0881977 0.91178656 0.32706979
1.1133251 0.91012019 0.32707673
1.1379298 0.91066265 0.32698449
1.1630912 0.91120064 0.32695913
1.1878922 0.91050345 0.32683325
1.2122082 0.91022265 0.32686731
1.2384009 0.91115141 0.32682729
1.2634368 0.9105621 0.32672396
1.2874933 0.91070724 0.32664096
1.3118384 0.9108808 0.32665786
1.3269298 0.90480465 0.32608473
0.81303024 0.93321514 0.32622167
0.84002393 0.93269229 0.32604089
0.86322355 0.93214846 0.32589385
0.88780135 0.93183035 0.32602912
0.91306442 0.93039697 0.32599318
0.93758297 0.93181467 0.32590044
0.96437097 0.93092453 0.32603386
0.98870939 0.93105209 0.32576659
1.0107144 0.93031859 0.32582057
1.0355799 0.9306941 0.32577586
1.0614201 0.92991072 0.32566908
1.0887325 0.92998302 0.3255747
1.1130948 0.92913759 0.32546887
1.1392615 0.92893773 0.32554805
1.1635045 0.92804241 0.32552996
1.1890717 0.92790747 0.32561353
1.2078733 0.92858958 0.3253465
1.2358478 0.92801005 0.32540086
1.2619997 0.92811787 0.32525048
1.2901721 0.92763114 0.32529938
1.3082733 0.92841858 0.32525501
0.82130736 1.2230277 0.32882398
0.83724862 1.2234995 0.32813242
0.86263627 1.2233901 0.32831174
0.88739467 1.2232975 0.32782
0.91129971 1.2239037 0.32867411
0.93709075 1.2237823 0.32893771
0.9649533 1.2235988 0.3280341
0.98816335 1.2234108 0.32785925
1.012935 1.2236874 0.32818803
