# .PCD v0.7 - Point Cloud Data file format
VERSION 0.7
FIELDS x y z
SIZE 4 4 4
TYPE F F F
COUNT 1 1 1
WIDTH 1456
HEIGHT 1
VIEWPOINT 0 0 0 1 0 0 0
POINTS 1456
DATA ascii
-0.53984737 1.6953518 0.26153803
-0.5344156 1.7076274 0.26164991
-0.36629176 2.1406868 0.25677425
-0.36044049 2.1541791 0.26077628
-0.037773609 1.5068903 0.28869623
-0.026936531 1.5190237 0.28608727
-0.018277168 1.5391773 0.28710359
-0.018084764 1.5566729 0.2848931
0.13643432 1.9503248 0.284931
0.14743614 1.9651413 0.28797388
0.15474629 1.9860991 0.28689176
0.15590739 2.0010819 0.29956424
-0.050312042 1.5082749 0.2855081
-0.050597191 1.5234789 0.28712851
-0.040038824 1.5543309 0.28827357
-0.03407526 1.5628686 0.28832561
0.12219858 1.9535687 0.28708881
0.12209845 1.970121 0.28719836
0.13407135 1.9978977 0.28675598
0.14214873 2.0061436 0.28614652
-0.063419342 1.5334129 0.2854389
-0.056507826 1.5516726 0.28722554
-0.04786253 1.5651381 0.27760422
0.10529804 1.96155 0.28337806
0.11029077 1.9806006 0.28397924
0.11662126 1.9960065 0.28667879
-0.51387024 1.667828 0.28729439
-0.50338399 1.6813153 0.28648746
-0.49386215 1.7040347 0.28714389
-0.49316108 1.7194314 0.28895229
-0.34008729 2.1093173 0.28897715
-0.33080125 2.1266677 0.28710228
-0.32170939 2.1477544 0.28618276
-0.31898725 2.1635828 0.29234535
-0.52663219 1.6707035 0.28809536
-0.52750397 1.6881917 0.2871052
-0.52261293 1.7119133 0.28688812
-0.50834382 1.7249912 0.2864899
-0.3583014 2.1185069 0.28569138
-0.35618031 2.1352873 0.28627288
-0.34510708 2.1573634 0.28691351
-0.32934654 2.1679449 0.28461462
-0.53878927 1.6981609 0.28757113
-0.53455961 1.7083381 0.28544253
-0.3658725 2.1422443 0.28834254
-0.36045063 2.1533074 0.28324646
-0.038559198 1.5063937 0.31401134
-0.027119637 1.5191585 0.31327611
-0.018039465 1.539963 0.31379741
-0.017637968 1.5567966 0.3146646
0.13493347 1.950274 0.31177235
0.14705563 1.964157 0.31339437
0.15492368 1.9856613 0.31392169
-0.051277876 1.5098974 0.31439567
-0.049623728 1.5235485 0.3125546
-0.039264202 1.5544972 0.31517911
-0.0314219 1.5627754 0.31477743
0.12151837 1.9529719 0.31294084
0.12345004 1.9700738 0.31271416
0.13405538 1.9972473 0.31328446
0.14672279 2.0047231 0.31522632
-0.062844038 1.5335906 0.3146823
-0.05691123 1.5505874 0.31256133
-0.048409939 1.5649934 0.31839067
0.10459161 1.9606415 0.3101933
0.11084723 1.98105 0.31234437
0.11624813 1.9952929 0.31398433
-0.51265478 1.6665227 0.31452376
-0.5036869 1.6804241 0.31372666
-0.49374199 1.7025497 0.31316632
-0.49331546 1.7191299 0.31401157
-0.33671689 2.1100557 0.3162269
-0.33019149 2.127486 0.31320673
-0.3211987 2.1481967 0.31389874
-0.32410884 2.1671343 0.3022393
-0.52688146 1.6700586 0.3158772
-0.52784097 1.6886975 0.31373638
-0.52201891 1.7124223 0.31393582
-0.5092355 1.7251229 0.31263226
-0.35713756 2.1184375 0.31213361
-0.35557199 2.13397 0.31340927
-0.34626985 2.156939 0.31403792
-0.32938743 2.1681604 0.31046319
-0.53937507 1.6964545 0.31319082
-0.53339982 1.7097341 0.31154668
-0.36525667 2.1424222 0.31533217
-0.36002731 2.1535258 0.31508946
-0.037482023 1.5059621 0.34013277
-0.027626276 1.5189286 0.34076136
-0.018205643 1.5396061 0.34076977
-0.017636061 1.5559669 0.33778381
0.13559031 1.950448 0.33807451
0.14672279 1.9651339 0.3397128
0.15483403 1.9867046 0.34050488
0.15164304 2.0021272 0.34784001
-0.050221205 1.5091757 0.33822739
-0.050621748 1.5225936 0.34066725
-0.040774345 1.5531212 0.34072691
-0.031652927 1.5633943 0.34211946
0.12004089 1.9538275 0.33827752
0.12242961 1.9705095 0.34203398
0.13451552 1.9975404 0.34027171
0.14511251 2.0056686 0.34238905
-0.06276083 1.5342679 0.34180409
-0.056677818 1.5514324 0.34017652
-0.04749918 1.5651867 0.33692271
0.10540843 1.9619635 0.33661288
0.11109471 1.981616 0.33948678
0.11702704 1.9962795 0.34045285
-0.51446402 1.6662321 0.3426038
-0.50383854 1.6810523 0.34067458
-0.49388063 1.7027059 0.339607
-0.49286854 1.7196616 0.34069121
-0.33742023 2.1089318 0.34100515
-0.33103764 2.1279311 0.33953446
-0.32126546 2.147614 0.3415283
-0.31821144 2.1630464 0.33729506
-0.52532887 1.6715198 0.34127915
-0.52787828 1.6880579 0.33975518
-0.52202559 1.7126129 0.34011292
-0.50786424 1.7242625 0.33909702
-0.35900187 2.1193695 0.33759201
-0.35606086 2.1348629 0.34070057
-0.34561574 2.1571007 0.33999306
-0.32870805 2.1678672 0.34231478
-0.53807795 1.6981194 0.34419894
-0.53370392 1.7092333 0.34096652
-0.36507773 2.1425447 0.34292698
-0.36031044 2.1536291 0.33877331
-0.039997339 1.5062931 0.36484683
-0.027909756 1.5179086 0.36822224
-0.018708944 1.5391066 0.36703455
-0.018572092 1.5572337 0.36599803
0.13592458 1.9502711 0.36703497
0.14793921 1.9651392 0.36788017
0.15411615 1.98649 0.36726433
0.15183711 2.0020022 0.37809521
-0.052132607 1.5094435 0.36515838
-0.050439358 1.5223312 0.36755496
-0.040550709 1.5532491 0.3670364
-0.032649279 1.5632579 0.36671489
0.12071371 1.9530277 0.36707729
0.12268591 1.9702122 0.36821485
0.13291955 1.9980587 0.36624593
0.14383721 2.0055017 0.36779952
-0.063001156 1.534157 0.36768359
-0.056445599 1.5519748 0.36728579
-0.048195839 1.5653157 0.36908466
0.10665512 1.9628191 0.36580306
0.11082053 1.9816569 0.36715597
0.11673546 1.9961718 0.36710328
-0.51074767 1.665138 0.36794317
-0.50444984 1.6798503 0.36658132
-0.49360621 1.7039112 0.36770892
-0.4925828 1.7183267 0.36554497
-0.3387934 2.1094184 0.36519545
-0.32978928 2.1275291 0.36690044
-0.32126868 2.1482568 0.36836845
-0.32042778 2.1633384 0.370395
-0.52574944 1.6702497 0.36759889
-0.52759862 1.6879979 0.3668837
-0.52223372 1.7123612 0.36643243
-0.5076834 1.7246889 0.366723
-0.35699248 2.1178339 0.36558014
-0.35567141 2.1343675 0.36731136
-0.34577239 2.1571722 0.36678249
-0.33095598 2.1686027 0.36946732
-0.53812492 1.6983013 0.36733079
-0.53279781 1.7108712 0.36924511
-0.36477506 2.1430824 0.36569005
-0.35983717 2.1542964 0.36486477
-0.039071321 1.5071408 0.39616477
-0.027522802 1.5190039 0.39472318
-0.018214226 1.5394315 0.39300048
-0.01621604 1.5557374 0.39058173
0.13545966 1.9498893 0.39374411
0.14730215 1.9642309 0.3941251
0.15450716 1.9860389 0.39410549
-0.051727533 1.5096893 0.39585507
-0.050435305 1.5233667 0.39369148
-0.039371729 1.5537459 0.39317924
-0.031052351 1.5630596 0.39245832
0.12105989 1.9537456 0.3937915
0.12326837 1.9690752 0.39339614
0.13376617 1.9971061 0.39352965
0.14381933 2.0069184 0.39635265
-0.062899828 1.5337257 0.39438951
-0.056025505 1.5524899 0.39322841
-0.049601316 1.5649683 0.40310991
0.10999227 1.9788724 0.39245796
0.11633754 1.9955219 0.39348912
-0.51129866 1.6671944 0.38919878
-0.50334466 1.6805285 0.39324713
-0.4940927 1.702423 0.39313763
-0.49306142 1.7195992 0.39151573
-0.33865702 2.1114788 0.39048874
-0.32925379 2.1287291 0.39414597
-0.32172716 2.1487746 0.3942619
-0.32315123 2.1660898 0.40364468
-0.52640092 1.6706821 0.39424974
-0.52783024 1.6876817 0.39410698
-0.52326119 1.7114971 0.39364541
-0.50789869 1.7247715 0.39343292
-0.35830152 2.1182692 0.39357442
-0.35657048 2.1352921 0.39386857
-0.34510088 2.157254 0.3943398
-0.33046043 2.1676271 0.39348048
-0.53900218 1.6962662 0.39392209
-0.53278065 1.7108598 0.39388072
-0.36507475 2.1413999 0.3935287
-0.35993874 2.1538277 0.39584363
-0.037477732 1.5066531 0.42567366
-0.027248859 1.5189096 0.42050654
-0.018650293 1.5403339 0.41968209
-0.016586542 1.5566418 0.42026049
0.13613367 1.9505466 0.420439
0.14688706 1.9641759 0.42012453
0.15427542 1.9862027 0.42020565
0.15241146 2.0027914 0.41641843
-0.04980588 1.509913 0.42001373
-0.050652742 1.5226398 0.42121166
-0.040893078 1.5529093 0.41991693
-0.031200409 1.5629416 0.41937101
0.12181187 1.9536202 0.42130941
0.12212729 1.9707965 0.41978014
0.13403082 1.998095 0.42094696
0.14237952 2.0063705 0.41845775
-0.062822104 1.5336471 0.42144769
-0.056533337 1.5522065 0.41918069
-0.047758341 1.5658135 0.41350323
0.10642886 1.9636149 0.4197979
0.11097932 1.9809806 0.42049462
0.1173079 1.9961634 0.42011201
-0.5136013 1.665922 0.42163068
-0.50435638 1.6799465 0.42114025
-0.49378836 1.7026891 0.41983104
-0.49254537 1.7190819 0.42190856
-0.33952105 2.1108601 0.42427176
-0.3297205 2.1272881 0.4203971
-0.32104087 2.1481616 0.42036688
-0.32088304 2.1644359 0.41315854
-0.52516997 1.6713465 0.41919684
-0.52810526 1.6879398 0.4212625
-0.52334023 1.7118795 0.42038161
-0.50730705 1.724705 0.42027986
-0.35721183 2.1174414 0.42205364
-0.35599864 2.1358578 0.42028612
-0.34466445 2.1573243 0.42139357
-0.33018482 2.1686749 0.42730868
-0.53906906 1.6939734 0.41929698
-0.53237522 1.7124279 0.42279303
-0.36522424 2.1418335 0.42205781
-0.35883367 2.1560807 0.41847074
-0.027056694 1.5191326 0.44675601
-0.018333435 1.5387588 0.44813871
-0.017474174 1.5567946 0.44578832
0.13573122 1.9504137 0.44998747
0.14743972 1.964749 0.4477582
0.15489221 1.9855276 0.44626552
0.15376997 2.0018203 0.44193649
-0.051213264 1.5095043 0.44596386
-0.050722837 1.5224584 0.44750947
-0.038208485 1.5532987 0.44742799
-0.032625437 1.5637534 0.44626778
0.12248278 1.9529151 0.44741261
0.12352586 1.9692607 0.44704974
0.13468075 1.9973062 0.44801986
0.1450398 2.0058069 0.44676292
-0.063109398 1.5339303 0.44683242
-0.056805372 1.5517386 0.44671947
-0.048501968 1.5657396 0.45464754
0.10590005 1.9624658 0.44535941
0.11123037 1.9816029 0.44740653
0.11674237 1.9953349 0.44815952
-0.51861942 1.6672888 0.44710499
-0.50416279 1.6797678 0.44721067
-0.49356222 1.7031093 0.44831449
-0.49488103 1.7209715 0.44669896
-0.33608377 2.1084697 0.44776696
-0.32906187 2.1280518 0.4487921
-0.32191837 2.1477079 0.44755125
-0.32143521 2.1644957 0.44900101
-0.52747822 1.6714189 0.44317842
-0.52870405 1.6878796 0.44714046
-0.52286589 1.7126147 0.44728708
-0.50854754 1.7250057 0.44668686
-0.35847473 2.1184077 0.44736731
-0.35554397 2.1342912 0.44694537
-0.34597707 2.1574678 0.44802624
-0.32941163 2.1672897 0.44442582
-0.53895569 1.6952436 0.44791836
-0.53320074 1.7106193 0.45066977
-0.36485553 2.1424098 0.44728297
-0.36027539 2.1542766 0.44752717
-0.037971735 1.5064812 0.46972066
-0.026604652 1.5191672 0.47330987
-0.018195391 1.5396793 0.47343886
-0.017021418 1.5562241 0.47459096
-0.00898242 1.5875695 0.48430157
0.0051252842 1.6237968 0.48622143
0.016003609 1.6517284 0.48516297
0.026940584 1.6798108 0.48409873
0.037936449 1.7080449 0.48302889
0.048984766 1.7364361 0.48195565
0.059875965 1.765105 0.48094964
0.066999197 1.7826967 0.4869315
0.078224897 1.8115209 0.48585761
0.089512348 1.8405032 0.48477781
0.10086155 1.8696448 0.48369217
0.11227345 1.8989469 0.48260045
0.12242293 1.9248935 0.48446798
0.13498139 1.9494399 0.47579396
0.14713407 1.9641101 0.47303087
0.15446448 1.9853055 0.47455877
0.15430903 2.001287 0.47762626
-0.052274704 1.5096276 0.47527033
-0.05017066 1.5219806 0.47406924
-0.038154125 1.5530349 0.47321337
-0.031138897 1.5660355 0.47680414
-0.022105217 1.5958912 0.48463392
-0.012690306 1.6172689 0.48390085
-0.0026445389 1.6414356 0.48401731
0.0055096149 1.6655524 0.48421162
0.015461683 1.6880558 0.48449689
0.025005579 1.714505 0.48444259
0.033596754 1.7374445 0.48404253
0.044001102 1.7596959 0.48387474
0.050923347 1.7833594 0.4837327
0.060867786 1.8057475 0.48405635
0.071225405 1.8286281 0.48399341
0.079391956 1.852525 0.48386431
0.088485003 1.8778129 0.48413813
0.097476006 1.8994105 0.48320276
0.10528684 1.9224982 0.48360145
0.11795044 1.9475441 0.47873706
0.12328839 1.969614 0.47526056
0.13402414 1.9967695 0.4738844
0.14098668 2.0070481 0.47362006
-0.065355539 1.5357331 0.47561097
-0.060241699 1.5524162 0.47559857
-0.05717659 1.5787492 0.48405188
-0.047575712 1.6037558 0.48463196
-0.036726475 1.6274046 0.48458308
-0.026386261 1.6514248 0.4838202
-0.019636869 1.6746874 0.48423046
-0.011439085 1.695173 0.48369658
-0.0015163422 1.7223823 0.4834159
0.0076272488 1.7466148 0.48384446
0.016433239 1.7689967 0.48360121
0.0257833 1.7910998 0.48403966
0.034813881 1.8157461 0.48367983
0.043243885 1.8392348 0.4837414
0.052974701 1.8599024 0.48351437
0.061585188 1.8843341 0.48347461
0.071452856 1.9086127 0.48306638
0.080467224 1.9325221 0.48383623
0.089648008 1.9543345 0.48337704
0.10513926 1.9808129 0.47743654
0.11522841 1.995878 0.47512764
-0.095918655 1.549423 0.48477679
-0.090441942 1.5632713 0.484209
-0.081666708 1.5863609 0.48421836
-0.072716236 1.6105156 0.48455751
-0.063165188 1.6366062 0.48418814
-0.054263353 1.6598635 0.48396373
-0.042850018 1.6817476 0.48381132
-0.036431313 1.7036301 0.48371828
-0.025720119 1.7302889 0.48395348
-0.01693058 1.7553749 0.48386133
-0.0080080032 1.7780981 0.4836126
-0.00040268898 1.8000889 0.48345244
0.010910988 1.8254851 0.48342305
0.017719507 1.8473148 0.48338765
0.027757883 1.8684328 0.48339832
0.037523031 1.8934915 0.48390377
0.045533419 1.9152672 0.4831934
0.055840492 1.9398384 0.48372132
0.064247131 1.9643214 0.48320502
0.075136185 1.9893981 0.48284304
0.081056118 2.0055318 0.48382962
-0.12118244 1.5582209 0.48465443
-0.11615276 1.5732355 0.48405546
-0.10688615 1.5957468 0.48376125
-0.098448753 1.6201005 0.48463422
-0.087986231 1.6438078 0.4839654
-0.078990221 1.6692787 0.48412549
-0.07076931 1.6904411 0.48394394
-0.063444614 1.7128397 0.48406547
-0.050727844 1.7387642 0.48382306
-0.040924072 1.7646163 0.48391491
-0.033029795 1.7849225 0.48344815
-0.02398324 1.8071816 0.48355573
-0.014784575 1.8321097 0.48379898
-0.0075540543 1.8569819 0.48301536
0.0035073757 1.8785497 0.48351455
0.011324644 1.9009087 0.4833203
0.021523952 1.9252027 0.48284644
0.03161931 1.9499059 0.48356181
0.039886475 1.9727505 0.48332137
0.047721386 1.9979801 0.48342228
0.054681063 2.0148437 0.48351628
-0.14512515 1.5649335 0.48550445
-0.141469 1.581286 0.4840433
-0.13334537 1.6041629 0.48409253
-0.12223577 1.6270654 0.48440266
-0.11273599 1.6525311 0.48428035
-0.10234809 1.6768475 0.483953
-0.093594313 1.701067 0.48395115
-0.087173223 1.7205895 0.48351789
-0.075636864 1.7466507 0.48353332
-0.06501174 1.7709459 0.48414469
-0.05857563 1.7926546 0.48337305
-0.048011541 1.8159404 0.48331857
-0.040329695 1.8416885 0.48372149
-0.03077364 1.8640432 0.48285961
-0.021535158 1.885546 0.48315889
-0.012447119 1.9102447 0.48323405
-0.003143549 1.9324505 0.48300874
0.0063750744 1.9583527 0.48340189
0.016849518 1.9809282 0.48282862
0.023520231 2.0070095 0.48282564
0.031639814 2.022891 0.48355436
-0.17036796 1.5738505 0.48545289
-0.16690969 1.588446 0.48418921
-0.15578055 1.6128093 0.48386884
-0.14761329 1.6355286 0.48447376
-0.13823795 1.6612992 0.48411357
-0.12790751 1.6852915 0.48422068
-0.1180706 1.7082437 0.48387516
-0.10973239 1.729313 0.48410511
-0.10033894 1.7554785 0.48375911
-0.090895653 1.7805634 0.484146
-0.082454443 1.8018972 0.4835645
-0.073799133 1.8242571 0.48317415
-0.062953472 1.8508624 0.48399478
-0.053920031 1.873944 0.48287261
-0.045533657 1.8954213 0.48354107
-0.038514853 1.9186988 0.48287845
-0.028277397 1.9412565 0.48283577
-0.017970562 1.9663045 0.48332155
-0.0086257458 1.9905851 0.48296458
0.00079011917 2.0143588 0.48362488
0.0040886402 2.0312743 0.48361921
-0.19667602 1.5823748 0.48519683
-0.19069386 1.5976062 0.48390621
-0.18135262 1.6217167 0.48384655
-0.17317343 1.6446681 0.48440057
-0.16258478 1.6682731 0.48391855
-0.15200448 1.6958628 0.48395008
-0.14477777 1.717932 0.48416042
-0.13720012 1.7387204 0.48395681
-0.12648463 1.7639014 0.48355365
-0.11604428 1.7881758 0.48406351
-0.10819483 1.8093979 0.48338956
-0.099170446 1.8318415 0.48340857
-0.090125561 1.8589052 0.48389351
-0.079173326 1.8808923 0.48320603
-0.071720123 1.9049989 0.48348409
-0.063009977 1.9287808 0.4833768
-0.052859306 1.9509659 0.48321915
-0.043253422 1.975868 0.4833495
-0.034356833 2.0002201 0.48290211
-0.024176121 2.0227525 0.4831394
-0.020552397 2.0407255 0.48425555
-0.22257853 1.5919563 0.48509252
-0.21552229 1.6067054 0.48444784
-0.20673037 1.6302273 0.48412758
-0.1973536 1.6537291 0.48458236
-0.18707299 1.6783142 0.48359913
-0.17917895 1.7015514 0.48380017
-0.16876602 1.7264341 0.48397803
-0.15975356 1.7473307 0.4837997
-0.15044141 1.772823 0.48392278
-0.14210939 1.796142 0.48351014
-0.13269114 1.8197429 0.48284829
-0.12492418 1.8409537 0.48318201
-0.11616874 1.8681084 0.48353255
-0.10608172 1.8905214 0.48316944
-0.097131014 1.9119538 0.48397374
-0.088949442 1.9370919 0.48354769
-0.078274488 1.9580641 0.48296964
-0.068890333 1.982939 0.48322862
-0.05921936 2.0091796 0.48319703
-0.049285173 2.0318987 0.48335212
-0.045032263 2.0469375 0.48287457
-0.24795175 1.6020343 0.48421437
-0.24214745 1.6163006 0.4843511
-0.23201489 1.6387045 0.48362184
-0.22343755 1.6617123 0.48447424
-0.21380353 1.6863823 0.48369861
-0.20424128 1.7107849 0.48353332
-0.19427562 1.7335246 0.48389357
-0.18496132 1.7561004 0.48418462
-0.17578745 1.7814832 0.48354453
-0.1685288 1.8072201 0.48396349
-0.15681982 1.8273909 0.48344129
-0.14888501 1.8502111 0.48373091
-0.1400578 1.8765801 0.48365265
-0.13082194 1.8978168 0.48277241
-0.12214422 1.9221349 0.483491
-0.11232018 1.9459491 0.48365283
-0.10390973 1.9678344 0.48294431
-0.0957973 1.9920402 0.48286825
-0.083591223 2.0176013 0.48324794
-0.075208187 2.0416474 0.4829601
-0.069700003 2.0566649 0.48384732
-0.27126133 1.6092186 0.48373538
-0.26700735 1.6253326 0.48414576
-0.25884962 1.6473553 0.48361498
-0.24922943 1.6704339 0.48457181
-0.23917699 1.6958241 0.48363334
-0.23000884 1.7203465 0.48381668
-0.22128105 1.7433605 0.48371351
-0.21302199 1.7655892 0.48386937
-0.20153952 1.7900937 0.48373729
-0.19324636 1.8147944 0.48392278
-0.18373537 1.83805 0.48357445
-0.17614937 1.8576998 0.48326796
-0.16601157 1.8850141 0.48347867
-0.15514588 1.9065442 0.4837842
-0.14744425 1.9310304 0.48305017
-0.13803434 1.9549782 0.48326349
-0.12827516 1.9765811 0.48318809
-0.12052321 2.0017352 0.48264408
-0.11061692 2.0260155 0.48391503
-0.10255694 2.0470922 0.48263127
-0.097241879 2.0657105 0.48385167
-0.29700649 1.6161761 0.48474407
-0.2901057 1.6319524 0.48424995
-0.28399408 1.6554295 0.48340732
-0.27358043 1.6782928 0.48422992
-0.26440537 1.7041043 0.48370135
-0.25546622 1.7285368 0.48352736
-0.24697876 1.7504092 0.48389333
-0.23692322 1.7729613 0.48368627
-0.22735214 1.7989665 0.48343521
-0.21746635 1.8238168 0.48364615
-0.20764256 1.8465921 0.48357403
-0.20104599 1.8686715 0.48336935
-0.1896615 1.8943543 0.48343748
-0.18065023 1.9154029 0.4829421
-0.17296624 1.9394051 0.48267943
-0.16292024 1.9641497 0.48297316
-0.15289783 1.9868731 0.48275059
-0.14866495 2.0100999 0.4831416
-0.13698506 2.0329247 0.48305869
-0.12928605 2.0572591 0.48291093
-0.12338829 2.0759931 0.48426008
-0.32338345 1.6252682 0.4840498
-0.31590044 1.6421936 0.48410261
-0.3076508 1.6645998 0.48364639
-0.29766011 1.6866224 0.4843598
-0.28935349 1.7120959 0.48379815
-0.27855396 1.7360165 0.48407912
-0.27000332 1.7593818 0.48357922
-0.26072955 1.7816747 0.48369884
-0.25104022 1.8066468 0.4837063
-0.24202275 1.8319978 0.48391885
-0.23174834 1.854898 0.48368907
-0.22599626 1.8744653 0.48323303
-0.21481943 1.9026116 0.48315018
-0.20474935 1.9242759 0.48322153
-0.19774961 1.9467518 0.48265934
-0.18780923 1.9726971 0.48326886
-0.1797812 1.9944896 0.4822368
-0.17147684 2.0175879 0.48334873
-0.16052437 2.0417552 0.48311657
-0.15200257 2.0658092 0.48315161
-0.14267778 2.0831501 0.48507988
-0.34758735 1.6323881 0.48451936
-0.341851 1.6515441 0.48397756
-0.33270299 1.6730695 0.48390764
-0.32455254 1.6960177 0.48388207
-0.31331706 1.7221776 0.48386699
-0.30406773 1.7450149 0.48375559
-0.29604053 1.76669 0.48383594
-0.2857908 1.7905275 0.48389179
-0.27675819 1.8152999 0.48350984
-0.26737165 1.8392091 0.4835763
-0.25848103 1.8630815 0.48339856
-0.25103092 1.8846359 0.48321813
-0.23951316 1.9115697 0.48392648
-0.23232818 1.9336338 0.48310339
-0.22053075 1.9559765 0.48317754
-0.21258736 1.9799747 0.48330092
-0.20404935 2.0015345 0.48341388
-0.19435096 2.0249755 0.48313493
-0.18548417 2.0490665 0.48278809
-0.17646527 2.0720878 0.48257327
-0.16783023 2.0914557 0.48372787
-0.37437403 1.6428094 0.48395109
-0.36738169 1.6590378 0.48407054
-0.35836852 1.6813459 0.48363745
-0.34956789 1.7061508 0.48351306
-0.33995903 1.7296129 0.48349172
-0.32937014 1.7530518 0.4836629
-0.31971073 1.7749187 0.48352182
-0.31197071 1.7989905 0.48357105
-0.30175304 1.8238804 0.48342723
-0.29280221 1.8490057 0.48379761
-0.28472924 1.8719542 0.48363549
-0.27603352 1.8909956 0.4827553
-0.2634567 1.9194326 0.4832508
-0.25715494 1.9419837 0.48365629
-0.24552798 1.9629323 0.48328292
-0.23856902 1.9877143 0.48307365
-0.22881007 2.0114939 0.48280519
-0.2199192 2.0341737 0.48299694
-0.21125436 2.0583696 0.48340696
-0.20221114 2.0823455 0.48275578
-0.19462776 2.0983844 0.48329765
-0.40031338 1.6517501 0.48420781
-0.39124644 1.667199 0.48382908
-0.38279819 1.688769 0.48384017
-0.37473238 1.7134612 0.48381478
-0.36501896 1.7391274 0.48385304
-0.35377395 1.7635205 0.48390156
-0.34485686 1.7834649 0.48367757
-0.33640838 1.8078015 0.48364407
-0.32822824 1.8319898 0.48339599
-0.318344 1.8571196 0.48353809
-0.31109405 1.8806794 0.48347157
-0.30189669 1.9014091 0.48328018
-0.29110348 1.9287728 0.48381877
-0.2837733 1.950711 0.48383015
-0.27140367 1.9699132 0.48321319
-0.26336074 1.9975972 0.48345274
-0.25625825 2.0224581 0.48279196
-0.24780941 2.0431705 0.48307413
-0.23751354 2.0668387 0.48291022
-0.22748995 2.091289 0.48301244
-0.226017 2.109787 0.48304969
-0.42106628 1.6598518 0.48402458
-0.41712618 1.6770707 0.48369056
-0.40729928 1.6981699 0.48380673
-0.39901078 1.7218543 0.48355389
-0.3899709 1.7480329 0.48427832
-0.37982666 1.7723252 0.48358214
-0.37196267 1.7936298 0.48337281
-0.36285484 1.8155137 0.48376817
-0.35391414 1.8419207 0.48315722
-0.34461558 1.8670551 0.48304129
-0.33544075 1.8892331 0.48387539
-0.32570374 1.9082792 0.48323762
-0.31647909 1.9361261 0.48353755
-0.3063091 1.9592016 0.48309773
-0.29824281 1.9805938 0.48329341
-0.28790569 2.0055847 0.48288757
-0.2799859 2.0302217 0.48303998
-0.27179718 2.0525477 0.48262966
-0.26105106 2.0758002 0.48285764
-0.2522707 2.0996294 0.48312414
-0.24501276 2.1156023 0.48124695
-0.44675028 1.6687019 0.48395348
-0.44087982 1.6862891 0.48420042
-0.43314838 1.708388 0.4837482
-0.4242059 1.7319592 0.48354256
-0.41456306 1.7559439 0.48345435
-0.40440035 1.7804042 0.4835335
-0.39729941 1.8022925 0.4834671
-0.3884387 1.8247716 0.48288268
-0.3779707 1.8499188 0.48346651
-0.36790931 1.8743654 0.48396581
-0.35798788 1.8967906 0.48376411
-0.35054386 1.9162267 0.48295599
-0.33990979 1.9449515 0.48339462
-0.33083403 1.9682059 0.48416835
-0.32406163 1.9905354 0.48324895
-0.3126806 2.0136533 0.48360276
-0.30238569 2.0383878 0.48329335
-0.29488218 2.0609884 0.48293138
-0.28713918 2.0848207 0.48322409
-0.27583182 2.1077056 0.48284483
-0.26557219 2.1224782 0.48237938
-0.47156048 1.677277 0.48405266
-0.46797132 1.694337 0.48376852
-0.45921016 1.7158227 0.48369694
-0.44954884 1.7413472 0.48339695
-0.43860126 1.7659497 0.48369062
-0.43005645 1.7900417 0.48338497
-0.42054176 1.8106987 0.48397106
-0.41231811 1.8333933 0.48415464
-0.40260077 1.8577706 0.48338455
-0.39287388 1.8825624 0.48324555
-0.38489997 1.9053972 0.48345011
-0.3776443 1.9253502 0.48298424
-0.36753738 1.9527427 0.48321903
-0.35675943 1.9772162 0.4830851
-0.34985018 1.999578 0.48298395
-0.33980703 2.0217268 0.48340732
-0.32894278 2.0465846 0.48261696
-0.32074666 2.0705438 0.48338544
-0.31292796 2.0945883 0.48242706
-0.30230916 2.114193 0.48322904
-0.29519784 2.131772 0.48320377
-0.51363683 1.6669263 0.47184497
-0.50398803 1.6799521 0.47403771
-0.49256968 1.702462 0.47503233
-0.48733759 1.7236985 0.4801504
-0.47480416 1.7486998 0.48347586
-0.46522939 1.7728145 0.48382878
-0.45653319 1.7984117 0.48371124
-0.44673598 1.8201742 0.48385596
-0.43882847 1.8423834 0.48437989
-0.42826414 1.8670802 0.48308527
-0.42022336 1.8919491 0.48373038
-0.41095042 1.9155627 0.48341411
-0.40373516 1.9351894 0.48306966
-0.39185631 1.9605222 0.48374677
-0.38257599 1.98519 0.48395264
-0.37609792 2.006593 0.48406667
-0.36487794 2.0309365 0.4835639
-0.35455132 2.0570009 0.48370922
-0.34613645 2.0796378 0.48390979
-0.33689177 2.1045208 0.48345816
-0.3287214 2.1279829 0.4751547
-0.32116246 2.148042 0.4738307
-0.32068992 2.1658332 0.47616094
-0.52596211 1.6707762 0.47368968
-0.52841115 1.6886972 0.47339559
-0.52321637 1.7115244 0.4741739
-0.50689018 1.7276036 0.47625965
-0.49343121 1.757797 0.48361474
-0.48401058 1.7802994 0.48398334
-0.47542346 1.8062549 0.48401332
-0.46830201 1.8263568 0.48464501
-0.45721865 1.8496338 0.48413742
-0.44715321 1.8745155 0.48367673
-0.4391762 1.8959758 0.4851988
-0.42926216 1.9217021 0.48452896
-0.42257059 1.9433348 0.48329943
-0.41170251 1.9676852 0.48378623
-0.40270329 1.9909028 0.48409784
-0.39295328 2.0148685 0.4841162
-0.38420248 2.0393021 0.48382896
-0.37526596 2.0610194 0.48307425
-0.3677696 2.0838673 0.4837153
-0.35773385 2.1136079 0.47899526
-0.35638583 2.1358581 0.47332007
-0.34599757 2.1566398 0.47500849
-0.33239222 2.1683588 0.47335094
-0.53765309 1.6991396 0.47766769
-0.53299177 1.7109916 0.47332597
-0.36532223 2.1418233 0.47464144
-0.36011076 2.1543941 0.47269815
-0.039270639 1.5065598 0.49803531
-0.02724123 1.518671 0.4998762
-0.018814325 1.5404359 0.50058645
-0.017166138 1.5627832 0.50074703
-0.0073707104 1.5911338 0.50287163
0.0013718605 1.6132057 0.50244963
0.011238098 1.6387043 0.50249052
0.019616365 1.6600347 0.50121516
0.028375626 1.6827886 0.50248688
0.03831315 1.7082036 0.50196046
0.047593594 1.7320204 0.50061035
0.056627512 1.7555363 0.50185126
0.065087557 1.7767541 0.50160068
0.074270964 1.8004601 0.50229508
0.084438324 1.8266046 0.50272769
0.093131542 1.8487364 0.50139982
0.10204887 1.871846 0.50259423
0.11219549 1.8977764 0.50091612
0.12016964 1.9186165 0.50306541
0.13261104 1.946075 0.50309795
0.14729476 1.9647995 0.5005815
0.15478206 1.9853606 0.50076216
0.15264654 2.0014915 0.50185215
-0.051258326 1.510491 0.50334215
-0.049848557 1.5221646 0.50030953
-0.03397274 1.5531158 0.49851328
-0.025743246 1.5694678 0.50001508
-0.01625967 1.5924346 0.50113767
-0.0076267719 1.6165189 0.49952501
0.0010800362 1.640491 0.49993098
0.011253834 1.6637834 0.49932224
0.019541025 1.6872283 0.50023252
0.029602528 1.7100301 0.50053531
0.037871361 1.7346721 0.49960691
0.046873808 1.7578251 0.49984092
0.056556225 1.7807872 0.49994504
0.065987587 1.8048139 0.50033855
0.073663235 1.8282059 0.50023013
0.083552122 1.8517164 0.49986911
0.092909098 1.8744216 0.50023943
0.10132313 1.8989053 0.49977469
0.11203027 1.9223387 0.50101691
0.12008739 1.9450512 0.49961221
0.12546611 1.9645813 0.49893975
0.13490462 1.9971561 0.49990004
0.14089751 2.0067289 0.50208396
-0.070380688 1.5376353 0.49964231
-0.065104485 1.5542113 0.49869508
-0.055833101 1.5806513 0.49570614
-0.047079563 1.6043696 0.49504763
-0.037657022 1.6270285 0.49623293
-0.027914286 1.651122 0.49504298
-0.019291878 1.6743819 0.4955126
-0.0094330311 1.6972053 0.49632901
-0.00021076202 1.7200011 0.4955588
0.0084969997 1.7446624 0.49464732
0.017270088 1.7689047 0.49691015
0.026162386 1.7902789 0.49520934
0.035229445 1.8143005 0.49554032
0.045198917 1.8374822 0.49595749
0.053731918 1.8621538 0.49576926
0.063552618 1.8851975 0.49567723
0.072774887 1.909415 0.49587023
0.082149506 1.9329145 0.49623847
0.089657784 1.9559398 0.49580306
0.10149837 1.9813762 0.49703443
0.10761404 1.9967148 0.50205553
-0.097506523 1.5465674 0.50009102
-0.090555191 1.5624105 0.49906933
-0.080891609 1.5887773 0.49635386
-0.071175337 1.6136848 0.49481338
-0.062935829 1.6364458 0.49618119
-0.052992582 1.6598536 0.49517047
-0.045017958 1.6825709 0.49530923
-0.034877777 1.7063061 0.49627823
-0.026243925 1.7285812 0.49540597
-0.017136812 1.7533664 0.49503732
-0.0081706047 1.7768502 0.49653637
0.00020337105 1.7993138 0.49509192
0.010673761 1.8233024 0.49597341
0.020287275 1.8465714 0.4965843
0.028846502 1.8714561 0.49550945
0.03737998 1.8942264 0.49628967
0.046989918 1.9178493 0.49575031
0.057069778 1.9409051 0.49586666
0.06511569 1.9645585 0.49632531
0.075082302 1.9901133 0.49897683
0.081840277 2.0066822 0.50157118
-0.12272096 1.555057 0.5003795
-0.11591887 1.5721352 0.49814224
-0.10608006 1.5980995 0.49647909
-0.096083403 1.6211735 0.49544621
-0.087474823 1.6439238 0.49589443
-0.077960968 1.6680627 0.49619585
-0.068870068 1.692481 0.49613643
-0.059900045 1.7161006 0.49645931
-0.050341845 1.7378927 0.49605668
-0.041821241 1.7615018 0.4956125
-0.032710791 1.7851284 0.49687743
-0.023456812 1.8076946 0.49606192
-0.014692545 1.8321493 0.49684429
-0.0053546429 1.8548763 0.49638397
0.0033521652 1.8790388 0.49663132
0.01216197 1.9030249 0.49590486
0.022113562 1.9259872 0.49642688
0.031778336 1.9494436 0.49685818
0.040344477 1.9737391 0.49639481
0.051297426 1.9990975 0.49863344
0.057259321 2.0156059 0.50158399
-0.14791918 1.5632071 0.50042206
-0.14105844 1.5807921 0.49887341
-0.13292503 1.6071117 0.49565023
-0.1226151 1.6306667 0.4953779
-0.11335158 1.6529237 0.49590927
-0.10408902 1.6765484 0.49642712
-0.095141888 1.7009735 0.49582797
-0.084882021 1.7248058 0.49556899
-0.077240467 1.746756 0.49574804
-0.067196369 1.7710314 0.49498552
-0.05851531 1.7942308 0.49707729
-0.050754547 1.8156219 0.49486095
-0.040157318 1.8401203 0.49546093
-0.030964375 1.8636179 0.4963398
-0.021982908 1.8877052 0.49537504
-0.01377058 1.9112234 0.49535
-0.0034668446 1.9344079 0.49593168
0.0050384998 1.9588263 0.49649978
0.015085459 1.9823056 0.49635625
0.024731159 2.0082123 0.4990325
0.031752348 2.0239391 0.5005371
-0.17178369 1.5719855 0.4995203
-0.16592717 1.5900121 0.49807692
-0.15545154 1.6163889 0.49650747
-0.14782786 1.6380692 0.49597871
-0.13746572 1.660955 0.49637872
-0.12904644 1.6847162 0.49649715
-0.11989379 1.7089449 0.49601287
-0.11006618 1.7337174 0.49587971
-0.10081124 1.755384 0.49638641
-0.091747999 1.7790346 0.49571913
-0.083775282 1.8033564 0.49618495
-0.075341702 1.8250916 0.49583566
-0.065244198 1.8498602 0.49666238
-0.055478334 1.8722394 0.49633688
-0.0470016 1.8965799 0.49607271
-0.037235975 1.9188714 0.49689275
-0.02843833 1.9431909 0.4965536
-0.01911068 1.9671504 0.49660349
-0.0096004009 1.9900959 0.49700451
0.00022220612 2.0168333 0.49910641
0.007735014 2.0325193 0.50053346
-0.19719672 1.580327 0.50003076
-0.19067121 1.5984488 0.49837101
-0.18112922 1.6231158 0.4955982
-0.17330766 1.6463478 0.49571961
-0.16197848 1.6708436 0.49597222
-0.15361619 1.6933979 0.49568433
-0.14457345 1.7168567 0.49526465
-0.1348331 1.7414582 0.49681854
-0.12575865 1.7636592 0.49584037
-0.11753106 1.787154 0.49631643
-0.10769153 1.8113954 0.49677283
-0.099070787 1.8333656 0.49508667
-0.089936733 1.8576939 0.4957667
-0.080730677 1.8812593 0.49657965
-0.072593212 1.9047008 0.49620783
-0.062429428 1.9275004 0.49596757
-0.053639412 1.9515548 0.49641585
-0.043568373 1.974882 0.49599421
-0.034742355 1.9986812 0.4965536
-0.024668217 2.0245578 0.49910879
-0.01804471 2.0404987 0.50070935
-0.2230978 1.5893785 0.50000554
-0.2162149 1.6061664 0.49815726
-0.2069664 1.6320983 0.49668473
-0.1987896 1.6552668 0.49595743
-0.18867946 1.6778951 0.49678361
-0.17998195 1.701614 0.49624163
-0.17097592 1.7252589 0.49599075
-0.16059971 1.75045 0.49588811
-0.15213227 1.772824 0.49612188
-0.14281726 1.7968137 0.49609286
-0.13264441 1.8201628 0.49648744
-0.12377834 1.8413981 0.49560726
-0.11489129 1.8666642 0.49600953
-0.10593057 1.8889145 0.4965052
-0.096717834 1.9129052 0.49572027
-0.088449478 1.9362983 0.49665773
-0.079585791 1.9605507 0.49634784
-0.06869173 1.9846486 0.49640059
-0.060795069 2.0085089 0.49680638
-0.049773455 2.033535 0.49920493
-0.043036938 2.0494983 0.50073284
-0.2483151 1.597892 0.4995712
-0.2416532 1.6147733 0.49667698
-0.2301352 1.6403582 0.49550217
-0.2226603 1.6621296 0.49560964
-0.21282434 1.688116 0.49554402
-0.20332932 1.7107574 0.49607515
-0.19457054 1.7336937 0.49636239
-0.18569684 1.7577534 0.49652135
-0.17783952 1.7804737 0.49646437
-0.16723704 1.8048661 0.49587351
-0.15819359 1.8286352 0.49686927
-0.14983273 1.8498865 0.49576426
-0.1405704 1.8747938 0.4962697
-0.1310637 1.898029 0.49653
-0.12089443 1.9211307 0.49675566
-0.11239338 1.9454992 0.49605799
-0.10350156 1.9692463 0.49676615
-0.093918324 1.9934044 0.4969644
-0.084730148 2.0164835 0.49688172
-0.075019598 2.0407801 0.49815714
-0.068997145 2.0581155 0.50067985
-0.27280116 1.6063973 0.50018173
-0.26593304 1.624166 0.49644351
-0.25543904 1.6484494 0.49557638
-0.24798155 1.6713586 0.4956857
-0.23877501 1.6961095 0.49594665
-0.22921181 1.7187561 0.49569404
-0.21963763 1.7427742 0.49577689
-0.21050644 1.7656851 0.49631411
-0.20253563 1.7886178 0.49627548
-0.19166207 1.8132281 0.4964394
-0.1833086 1.83778 0.49651867
-0.17497325 1.8591069 0.49547267
-0.16499853 1.8839433 0.49606764
-0.1561954 1.906372 0.49669927
-0.14678478 1.9300613 0.49622452
-0.13815904 1.9536624 0.49601221
-0.12880683 1.9764657 0.49615896
-0.11974883 2.0020776 0.49619848
-0.11021352 2.024452 0.49681729
-0.10049891 2.0492024 0.49811262
-0.093684196 2.0669215 0.49999839
-0.2975657 1.6148289 0.50097728
-0.29010284 1.6319247 0.49716568
-0.28154266 1.6559908 0.49659091
-0.27306724 1.6787868 0.49694341
-0.262797 1.7065734 0.49585009
-0.25426412 1.7283072 0.49677348
-0.24478841 1.7509557 0.49670261
-0.23594952 1.7750516 0.4964897
-0.22805834 1.7969441 0.49630648
-0.21717286 1.8218863 0.49598527
-0.20869184 1.8454287 0.49673355
-0.20004272 1.8669603 0.49585837
-0.18990731 1.8931832 0.49641609
-0.1810894 1.9150133 0.49626964
-0.1730442 1.9385493 0.49626219
-0.16291976 1.9623855 0.49593073
-0.15345335 1.9848177 0.49757254
-0.14474416 2.0098162 0.49701363
-0.13526678 2.0331569 0.49702305
-0.12549257 2.0580115 0.49889445
-0.11838603 2.0752406 0.50142723
-0.32348847 1.6234468 0.50086725
-0.3160696 1.6409881 0.49708039
-0.30572832 1.6661655 0.49597061
-0.29754937 1.6880256 0.49598205
-0.28764093 1.7135009 0.49545664
-0.27996159 1.7370746 0.49625611
-0.27040505 1.7594564 0.49545825
-0.26110756 1.7823519 0.49597311
-0.25246835 1.8047178 0.49601716
-0.24307585 1.8301548 0.49580705
-0.23333836 1.8544469 0.4971782
-0.22468114 1.8755739 0.49596131
-0.21532059 1.9013695 0.49629891
-0.20633769 1.9242148 0.49634016
-0.19745421 1.9471425 0.49603724
-0.18810058 1.9695398 0.4962464
-0.17940021 1.9919256 0.49603271
-0.16904187 2.0180564 0.49603653
-0.16056323 2.0417879 0.49647474
-0.15071273 2.0657635 0.49791759
-0.14427829 2.0839634 0.50079709
-0.34855998 1.6328243 0.50022447
-0.34243798 1.6503276 0.49739569
-0.33254921 1.6739683 0.49620676
-0.32481372 1.6967609 0.49604458
-0.31448722 1.722865 0.49577373
-0.30596244 1.7452805 0.49659276
-0.2972393 1.768275 0.49623287
-0.28681529 1.7905345 0.49598283
-0.27865863 1.8138919 0.49644828
-0.26879847 1.8395131 0.49543244
-0.25890851 1.8629246 0.4968968
-0.25075793 1.8844973 0.49591821
-0.24145007 1.9105892 0.4972437
-0.23142529 1.9326965 0.49677098
-0.22459388 1.9559264 0.49672008
-0.21441174 1.9800434 0.49650359
-0.204283 2.0020177 0.49609667
-0.19608355 2.0269601 0.49701017
-0.18717551 2.0508795 0.49684036
-0.17775321 2.0746765 0.4975971
-0.17066979 2.0927043 0.50200891
-0.37374389 1.6409352 0.50043857
-0.36783993 1.6575878 0.49800521
-0.35616112 1.6831734 0.49718106
-0.34828663 1.7047827 0.49645823
-0.34005201 1.7302604 0.49667895
-0.32963169 1.7532207 0.49672812
-0.32073867 1.7762399 0.49600506
-0.31055772 1.7994862 0.49630326
-0.30347955 1.8229327 0.49645483
-0.29323506 1.8472137 0.49561644
-0.28407907 1.8719074 0.49659169
-0.27658165 1.8934991 0.49515253
-0.26616919 1.9185901 0.49709785
-0.25651526 1.941377 0.49638057
-0.24819994 1.9640242 0.49604046
-0.23928785 1.9868284 0.49667174
-0.22863173 2.0106001 0.49621981
-0.2200532 2.0348573 0.49605244
-0.21171165 2.058414 0.49635196
-0.20108604 2.0838757 0.49834603
-0.19549584 2.1006877 0.50178367
-0.39965439 1.6497374 0.50071836
-0.39177847 1.6665779 0.49814397
-0.38186479 1.6906061 0.49611139
-0.37314713 1.7140617 0.49549174
-0.36493647 1.7393571 0.49626011
-0.35520768 1.7616212 0.4967612
-0.34571731 1.7848561 0.49530548
-0.33642399 1.8083693 0.49585128
-0.32818913 1.8317322 0.49683082
-0.3185643 1.8560024 0.49667037
-0.3077147 1.8798265 0.49685282
-0.30032635 1.9016933 0.4954949
-0.29154313 1.9265518 0.49685591
-0.28128994 1.9483707 0.49628532
-0.27229297 1.9723541 0.49607301
-0.26370966 1.9963672 0.49621153
-0.25420451 2.0191574 0.49539566
-0.24524808 2.0431476 0.4967109
-0.2358892 2.0672245 0.49606478
-0.22631717 2.091285 0.49788457
-0.21981883 2.1090949 0.50139105
-0.42464066 1.6570925 0.49970955
-0.4174372 1.6740727 0.49719167
-0.40697062 1.7002652 0.49685103
-0.39799833 1.7231648 0.49584329
-0.39021707 1.7470462 0.49669969
-0.38018751 1.770529 0.49659514
-0.37001407 1.7940214 0.49637395
-0.36116922 1.8174754 0.49607366
-0.35281396 1.8396256 0.49690545
-0.34315479 1.8641518 0.49643183
-0.332762 1.8882015 0.4971059
-0.32537043 1.9099135 0.49547148
-0.31621897 1.934469 0.49611866
-0.30772436 1.9574337 0.49621141
-0.29727936 1.9819672 0.49646908
-0.28921056 2.0057149 0.49726731
-0.27946913 2.0283804 0.49659193
-0.27051377 2.0514021 0.49656665
-0.26173675 2.0754316 0.49661976
-0.25068831 2.1010494 0.49749202
-0.24541616 2.1175096 0.50154603
-0.44796491 1.6660258 0.49995947
-0.44315982 1.6826161 0.4980436
-0.43253899 1.7086771 0.49699092
-0.42324996 1.7310846 0.49635595
-0.41403449 1.7555982 0.49588042
-0.4050138 1.778919 0.49692321
-0.39524114 1.801924 0.49554151
-0.38714218 1.8257583 0.49664861
-0.37784123 1.848732 0.49636143
-0.36811805 1.8728961 0.49615532
-0.3581208 1.8972336 0.49696887
-0.35113537 1.9193408 0.49638981
-0.34144938 1.9433672 0.49724054
-0.33318138 1.965631 0.49652302
-0.3222692 1.9903491 0.49562323
-0.31391668 2.0141506 0.49617517
-0.30412114 2.0370212 0.49604219
-0.29449964 2.060236 0.49650282
-0.28632069 2.083982 0.49603283
-0.27640295 2.1097445 0.49853146
-0.27027535 2.1257658 0.50166714
-0.47486567 1.6749442 0.49976319
-0.46811378 1.6914999 0.49749023
-0.45736182 1.717689 0.49576449
-0.44844353 1.7400496 0.49689955
-0.43993485 1.7640357 0.49656051
-0.43104172 1.7877954 0.49636853
-0.42078602 1.8106155 0.49566132
-0.41231918 1.8346307 0.495727
-0.40278649 1.8568718 0.49653363
-0.39320254 1.8815763 0.49598199
-0.3852216 1.9064589 0.49623072
-0.37641931 1.9279975 0.49534059
-0.36639094 1.9517801 0.49666464
-0.35742986 1.9742723 0.49651504
-0.34704506 1.9981561 0.49632621
-0.33949661 2.0217159 0.49651361
-0.33009827 2.045599 0.49608952
-0.32057834 2.0688972 0.49660498
-0.31140029 2.0914252 0.49598402
-0.30146265 2.1184402 0.49861908
-0.29573047 2.1342547 0.50144136
-0.51255631 1.6663491 0.50130582
-0.50333345 1.6799572 0.49977595
-0.49158072 1.7018119 0.49776411
-0.48300445 1.7262036 0.49639285
-0.47422373 1.7488575 0.49717832
-0.46516776 1.7728724 0.49649942
-0.45531631 1.7961702 0.49754423
-0.44582915 1.8190881 0.49641556
-0.43734741 1.8435692 0.49659556
-0.42856801 1.8657022 0.49674881
-0.41819417 1.8897926 0.4960888
-0.40984511 1.9139308 0.49662548
-0.40103161 1.9363582 0.49596536
-0.39119804 1.961129 0.49722999
-0.3839196 1.9834218 0.49687213
-0.37307119 2.007431 0.49663854
-0.36352265 2.0303454 0.49704212
-0.3552531 2.0546103 0.49661571
-0.3457489 2.0781405 0.49592763
-0.33682632 2.1007168 0.49616921
-0.32538915 2.1242981 0.4973799
-0.31997848 2.147897 0.49980962
-0.3237946 2.1655223 0.49678892
-0.52888441 1.6727508 0.49810028
-0.52872562 1.6880734 0.49974978
-0.52318168 1.7121636 0.50088269
-0.50553501 1.7322168 0.50040239
-0.49540412 1.756614 0.50078553
-0.4857229 1.7799747 0.50032949
-0.47715211 1.8031236 0.50046098
-0.46831822 1.8259528 0.50026023
-0.45902646 1.8502005 0.50017422
-0.45005655 1.8729945 0.50085717
-0.44007015 1.8974942 0.50079024
-0.43072557 1.9211999 0.50090998
-0.42155302 1.943572 0.50109822
-0.41320872 1.9677213 0.50142884
-0.4042716 1.9911218 0.50071466
-0.39463603 2.0155101 0.50068134
-0.38552845 2.038239 0.50161046
-0.37609744 2.0612233 0.50082618
-0.36718595 2.0854456 0.50093627
-0.3585819 2.1085625 0.50084096
-0.35742509 2.1349249 0.50054193
-0.3452518 2.1573565 0.50022906
-0.33050752 2.1674654 0.49626458
-0.53819036 1.6979336 0.49853736
-0.53224587 1.7118967 0.49992019
-0.365291 2.1424465 0.50112623
-0.35990989 2.1541176 0.50309736
-0.040013552 1.5060854 0.5300312
-0.02711606 1.5187449 0.52685976
-0.018810272 1.5399013 0.52652943
-0.016661882 1.5652112 0.52701634
-0.0076158047 1.5904459 0.52734941
0.0013515949 1.6130276 0.5263716
0.011232853 1.6383944 0.52714783
0.020212889 1.6611255 0.52547479
0.028495312 1.682642 0.52755684
0.038110733 1.7074158 0.52695966
0.048075199 1.7328889 0.52557313
0.056332588 1.7545928 0.52754802
0.064941883 1.7761776 0.52557349
0.074838877 1.8016737 0.52695996
0.084518194 1.8264251 0.52755696
0.093193531 1.8484991 0.52614057
0.10211158 1.8716274 0.52637279
0.1118474 1.8965575 0.52666003
0.12029696 1.9187334 0.52734923
0.13097334 1.9434636 0.52625525
0.14734364 1.9643197 0.52772093
0.15445232 1.9857681 0.52606207
0.15286517 2.0013618 0.53349131
-0.050185442 1.5095154 0.52628887
-0.050278425 1.5223863 0.52735591
-0.029684782 1.549546 0.52479005
-0.02015543 1.5678296 0.5273695
-0.010931969 1.5917641 0.52708226
-0.0017776489 1.6152213 0.52774954
0.0072441101 1.6383672 0.5265106
0.015738726 1.6607435 0.52831757
0.025350094 1.6852738 0.52712804
0.034869671 1.7094158 0.52780682
0.044083118 1.7329615 0.52721941
0.052924871 1.756068 0.52638394
0.061959267 1.7789996 0.52709484
0.071194649 1.8025159 0.52789831
0.080392599 1.8265878 0.52701235
0.089925766 1.8511108 0.52818704
0.099002361 1.8738909 0.52650809
0.10793543 1.8968239 0.52773368
0.11692262 1.9198415 0.5272187
0.12629914 1.9438238 0.52764958
0.13192677 1.9631376 0.52971339
0.13529992 1.9973346 0.52756822
0.14328218 2.0061998 0.52698958
-0.071000814 1.5375994 0.52606696
-0.068502903 1.5484031 0.53018808
0.10453892 1.987323 0.52523023
0.1085391 1.9976518 0.52705503
-0.097267389 1.5466169 0.52657437
-0.093044758 1.5567052 0.52869117
0.076937199 1.9964638 0.52873129
0.081413746 2.006628 0.52694833
-0.1235292 1.5558099 0.5268954
-0.1182518 1.5650151 0.53106004
0.052388668 2.004638 0.52722329
0.055500269 2.0154405 0.52638727
-0.14769602 1.5640062 0.52590823
-0.14539361 1.5739385 0.52800965
0.027870655 2.0136614 0.52761102
0.030970097 2.0238004 0.5263021
-0.17177248 1.5715413 0.52576697
-0.1692667 1.5827258 0.52631104
0.0015707016 2.0226319 0.52662146
0.0072870255 2.0320194 0.5265696
-0.19748449 1.5811613 0.52561861
-0.1934495 1.5900823 0.52719563
-0.0218153 2.0301991 0.52800947
-0.01776433 2.0401907 0.52624851
-0.22413325 1.5893807 0.52631491
-0.21874976 1.5993242 0.52632433
-0.048132181 2.0397458 0.52838337
-0.043446302 2.0493989 0.52645767
-0.24941635 1.5981277 0.52715397
-0.24387765 1.6074713 0.52685457
-0.073293924 2.047931 0.52863288
-0.069399834 2.0586329 0.52645731
-0.27320719 1.6057594 0.52688837
-0.27041423 1.6164639 0.52619064
-0.096587181 2.0556984 0.52788162
-0.094930649 2.0668273 0.52678335
-0.29801536 1.6148325 0.52699947
-0.295156 1.6252246 0.52838266
-0.12245607 2.0647693 0.52708972
-0.11855698 2.0744145 0.52641869
-0.32425797 1.6235237 0.52675754
-0.31981874 1.6332897 0.52822483
-0.15011334 2.0737314 0.52629411
-0.14504981 2.0837421 0.52659976
-0.34815836 1.6320415 0.52711427
-0.34536338 1.6420329 0.5301379
-0.17349458 2.0819955 0.52663535
-0.16974616 2.0915952 0.5270716
-0.37425339 1.6406207 0.52683413
-0.37001646 1.6504091 0.52775991
-0.19924355 2.0900226 0.52656788
-0.19592285 2.1002121 0.52763391
-0.40109694 1.6504216 0.52734703
-0.39349377 1.6588223 0.529324
-0.22439337 2.0990095 0.52768308
-0.22151279 2.1091566 0.52754736
-0.42473841 1.6578507 0.5268935
-0.4203099 1.6676872 0.5273748
-0.24959135 2.1074116 0.52665931
-0.24443579 2.1172411 0.52724123
-0.44807637 1.6660647 0.527017
-0.44798279 1.6766776 0.52695
-0.27482307 2.1160657 0.52779347
-0.26938534 2.1252656 0.52690899
-0.47414839 1.6750214 0.52637112
-0.47158265 1.6849284 0.52661324
-0.29999566 2.1251113 0.52849793
-0.29557836 2.1341989 0.52721649
-0.51434231 1.6669822 0.52827483
-0.50281394 1.6795594 0.52697146
-0.49207008 1.6907201 0.52665108
-0.44894326 1.8443594 0.54079902
-0.42564392 1.8987963 0.54057306
-0.40216565 1.9549164 0.54050416
-0.38195598 2.0131283 0.54096824
-0.35627258 2.0755332 0.54094195
-0.3494966 2.0967641 0.54075003
-0.31812036 2.1312175 0.52788681
-0.32145834 2.1476464 0.52749842
-0.31888282 2.1640334 0.52319509
-0.52775455 1.6712692 0.53325653
-0.52877676 1.688704 0.52615732
-0.52316785 1.7117679 0.52686852
-0.50629628 1.7333157 0.52764499
-0.49647415 1.756681 0.52667654
-0.48746157 1.779797 0.52739656
-0.47805011 1.8037944 0.52641338
-0.46934688 1.8266433 0.5280664
-0.45972872 1.8510664 0.52647734
-0.45051444 1.8743207 0.5277229
-0.44202161 1.8968091 0.52666503
-0.43263006 1.9208349 0.52789485
-0.42332065 1.9447653 0.52678818
-0.41390276 1.9679195 0.52797174
-0.40487373 1.991591 0.52657157
-0.39555633 2.0157826 0.52807134
-0.38668132 2.0383899 0.52673888
-0.37757146 2.0618711 0.52739447
-0.36847782 2.0851126 0.52696425
-0.3597405 2.1092482 0.52681011
-0.3579638 2.1361511 0.52759093
-0.34537923 2.1565545 0.52663779
-0.33029032 2.1677027 0.53095216
-0.53872561 1.6971927 0.52950978
-0.53314638 1.7108136 0.52504444
-0.364923 2.1445405 0.52738923
-0.36014462 2.1544209 0.52815896
-0.038882017 1.5067958 0.55428052
-0.027006865 1.5182549 0.55367023
-0.019222498 1.5400345 0.55368453
-0.016351223 1.5628303 0.55286473
-0.0079071522 1.5897143 0.55260611
0.00071287155 1.6115257 0.55085069
0.010073423 1.6353111 0.55128998
0.019455194 1.6594377 0.54984635
0.028819799 1.6834004 0.55107754
0.038790226 1.7089736 0.55139464
0.048532009 1.7340701 0.54978633
0.056160688 1.753819 0.55172479
0.064746857 1.7758526 0.54997891
0.074317217 1.8002248 0.55244476
0.08381176 1.8246678 0.55143231
0.093214512 1.8487741 0.55026162
0.10244274 1.8722333 0.55013794
0.11176062 1.8962665 0.55118489
0.1208787 1.9199628 0.55142611
0.13323259 1.9468527 0.55175781
0.14688468 1.9641107 0.55393583
0.15445781 1.9856023 0.55291194
0.15300679 2.0032623 0.55572045
-0.052412748 1.5102614 0.55677176
-0.049812317 1.5220501 0.55519116
-0.035953283 1.5511243 0.55756843
-0.027019024 1.5703491 0.55539489
-0.018914461 1.594672 0.55556381
-0.0092916489 1.617155 0.55477577
0.00016379356 1.6415379 0.55493325
0.0087628365 1.6649859 0.55480278
0.017776012 1.6876718 0.55465966
0.027048349 1.7113589 0.55557084
0.036895275 1.7344036 0.55430377
0.045677423 1.7585849 0.55575329
0.05476594 1.781232 0.55436301
0.064483166 1.804708 0.55494797
0.072756767 1.8294636 0.55519491
0.081856728 1.8522514 0.55557442
0.091756105 1.8751426 0.55470818
0.10068154 1.8990228 0.55507648
0.11030531 1.9222567 0.55572307
0.11954308 1.9465263 0.55494225
0.12829304 1.9637626 0.55640143
0.13429999 1.9958568 0.55506694
0.14259696 2.0064125 0.55573034
-0.068583488 1.5357176 0.55212146
-0.066518545 1.5521382 0.55503559
0.10139203 1.9828025 0.55729973
0.10808063 1.9970309 0.55233252
-0.097473383 1.5456177 0.55020028
-0.091765165 1.5607874 0.55541885
0.076166868 1.9911751 0.55692965
0.081744432 2.006124 0.55228007
-0.12235999 1.5540218 0.54885149
-0.11674643 1.5690866 0.5551284
0.050734758 2.00019 0.55676705
0.054991722 2.0152149 0.55183148
-0.14747596 1.5632119 0.54982656
-0.14149117 1.5781354 0.55492264
0.025473356 2.0085688 0.55599856
0.031128645 2.0237925 0.55165154
-0.17240691 1.5721366 0.54933405
-0.16663957 1.5861093 0.55417591
0.00063490868 2.017266 0.55639434
0.008600235 2.0317109 0.55166578
-0.19770598 1.5805545 0.54894656
-0.19138741 1.5950289 0.55470103
-0.022944927 2.0264184 0.55636275
-0.018054962 2.0402102 0.55170137
-0.22262192 1.5898371 0.54996485
-0.21751189 1.6036644 0.55465561
-0.049441576 2.0341144 0.55646557
-0.044449091 2.0492363 0.55236268
-0.24871898 1.5981526 0.55003411
-0.24206042 1.6120813 0.55516869
-0.074739218 2.0435462 0.55691826
-0.070017576 2.0579624 0.55220222
-0.27220249 1.6063428 0.55074018
-0.26626647 1.6205823 0.55491859
-0.099751949 2.0510712 0.55706418
-0.093221903 2.0651512 0.55246085
-0.29767346 1.6144241 0.55080217
-0.29157209 1.6298299 0.55491287
-0.12540722 2.0595033 0.55680639
-0.1181531 2.0736966 0.55125791
-0.32431602 1.622593 0.54979998
-0.31873035 1.6379507 0.55483419
-0.15081048 2.0673149 0.55718565
-0.14414024 2.0826907 0.55163968
-0.34906793 1.6307384 0.55014139
-0.34360194 1.6460719 0.55453289
-0.17632127 2.0765581 0.55744892
-0.16996932 2.0913553 0.55079132
-0.37354434 1.64031 0.55001116
-0.36878133 1.6550469 0.55524558
-0.20163536 2.084518 0.55842304
-0.19549346 2.0999293 0.55177945
-0.39826393 1.6486087 0.55062592
-0.39369226 1.6636907 0.55468547
-0.22676849 2.0950828 0.55648685
-0.22217011 2.1086018 0.55179214
-0.42401445 1.6561728 0.55024767
-0.41856027 1.6717848 0.55424345
-0.24993062 2.1026618 0.55672002
