# .PCD v0.7 - Point Cloud Data file format
VERSION 0.7
FIELDS x y z
SIZE 4 4 4
TYPE F F F
COUNT 1 1 1
WIDTH 1489
HEIGHT 1
VIEWPOINT 0 0 0 1 0 0 0
POINTS 1489
DATA ascii
1.3230535 0.40398508 0.094052672
1.0675555 0.6372515 0.092243448
1.0902066 0.63276851 0.089729644
1.1055899 0.63746858 0.085461341
1.0550944 0.64321101 0.091106102
1.1180744 0.64975321 0.08676824
1.0925395 0.67843515 0.090958022
1.1115152 0.66785008 0.088904977
1.085259 0.68083739 0.097731084
0.96872663 0.11339504 0.11047243
0.98865473 0.1140117 0.11232773
0.99911976 0.12033039 0.11310455
1.0052223 0.12991261 0.11235843
0.97574371 0.1516915 0.10819694
0.98934984 0.14829832 0.11126416
1.0043727 0.14061004 0.11353964
1.2930791 0.37183666 0.11339487
1.3143809 0.37003979 0.1144539
1.3224337 0.37371176 0.10504098
1.2771163 0.38376495 0.11216974
1.2802237 0.38106176 0.10585126
1.3318058 0.38981199 0.10706792
1.2949016 0.41374195 0.11285657
1.3102005 0.40942824 0.11276349
1.3220675 0.40448153 0.11236825
1.0573808 0.63931674 0.10652432
1.0679568 0.63394707 0.1127214
1.0882802 0.63079631 0.109713
1.1049848 0.63745511 0.10604097
1.053646 0.64155275 0.10609914
1.1173546 0.6500026 0.10679203
1.0934355 0.67890352 0.11394718
1.1103542 0.6699242 0.10987242
0.96867836 0.11444527 0.12885803
0.98676664 0.11392939 0.13225241
0.9997437 0.12094229 0.13324285
1.0049877 0.12699646 0.13353702
0.9731338 0.15497941 0.12459274
0.98825061 0.15141386 0.13149793
1.0045639 0.14266247 0.13298133
1.2902182 0.3723318 0.13220406
1.3124778 0.36921775 0.13440156
1.3221951 0.37433875 0.12509765
1.2768799 0.38305682 0.12892054
1.3303695 0.38924462 0.12788868
1.2984186 0.4125005 0.13165322
1.3132743 0.40850183 0.13318302
1.3209987 0.40466172 0.13403645
1.0883677 0.63078707 0.1264713
1.1019548 0.63833195 0.12582661
1.1161582 0.65067774 0.12675688
1.0926163 0.67961711 0.1336382
1.1076086 0.67306155 0.13024014
0.97313023 0.11514294 0.15270373
0.9867146 0.11478966 0.15064391
0.99989057 0.121656 0.15635094
1.0070666 0.13098341 0.1537011
0.98888975 0.15399498 0.15123269
1.004812 0.14497817 0.15302812
1.2880923 0.37260157 0.15209477
1.3105736 0.36833549 0.1543511
1.3244891 0.37704554 0.14532414
1.2760005 0.38211089 0.15064362
1.3306539 0.39179087 0.14642385
1.2965233 0.4120602 0.15158905
1.3141494 0.40762195 0.15339409
1.3256903 0.40047336 0.15974055
1.0920316 0.63355398 0.15017463
1.1013376 0.63919473 0.14583984
1.1148163 0.65152615 0.14670235
1.0951592 0.67855042 0.15401231
1.1095158 0.67173231 0.14654315
1.0905836 0.68028605 0.15854943
0.97308558 0.11636817 0.17108391
0.9880181 0.11616772 0.17249593
0.9987638 0.12124819 0.17333996
1.0071764 0.12935168 0.17353533
0.99500626 0.15501863 0.17055787
1.0086491 0.14536828 0.17448112
1.279017 0.37680003 0.176227
1.2872683 0.37206125 0.17112975
1.3086817 0.36806181 0.17428172
1.3236568 0.37657869 0.16536087
1.274107 0.38175544 0.1705768
1.331112 0.39042521 0.1656066
1.2951124 0.41224477 0.16652495
1.3123537 0.40847671 0.1732966
1.3242761 0.40050656 0.17468116
1.0926969 0.63662583 0.17023587
1.0785689 0.64112943 0.17880775
1.1110947 0.64835697 0.16655616
1.0980248 0.67710209 0.17442945
1.1117676 0.66798854 0.1659731
1.0891998 0.68077713 0.17347789
0.97123146 0.11796188 0.19095664
0.98614824 0.11697888 0.19239295
0.99742132 0.1211428 0.1949918
1.0066333 0.12899101 0.19292036
0.99742711 0.15888613 0.18704964
1.0114032 0.14855701 0.19232345
0.99678004 0.16414607 0.19484693
1.0044333 0.16156238 0.19767074
1.2726492 0.37480688 0.19122468
1.2896692 0.36778983 0.19144921
1.3062347 0.36692786 0.1925693
1.3228877 0.37608141 0.18487237
1.3299272 0.39106861 0.18557361
1.3109572 0.4095318 0.19323012
1.3224199 0.40199602 0.19455713
1.0962789 0.63750559 0.18561876
1.1057817 0.63832229 0.19151115
1.0850863 0.6413129 0.19132972
1.1123782 0.64811516 0.18739873
1.09618 0.67915499 0.19428794
1.1116029 0.66720903 0.18708795
1.0883614 0.68209338 0.19345529
0.97432017 0.11777747 0.21135309
0.98427606 0.11768264 0.21229327
0.99705243 0.12181687 0.21335958
1.0098665 0.13279432 0.2142041
1.0176287 0.14694172 0.20884155
1.0245563 0.15308285 0.2177809
1.0119133 0.16939479 0.20574804
1.0290821 0.16953069 0.20994857
1.044847 0.17273259 0.21929081
1.0158623 0.18300742 0.20897526
1.0303369 0.18426412 0.20910397
1.0518479 0.18754631 0.21172777
1.0642674 0.19317788 0.21323916
1.0354139 0.20747417 0.2191745
1.049399 0.20909226 0.21258576
1.073462 0.20493776 0.2102156
1.0913888 0.21142054 0.21445476
1.072067 0.22687137 0.20804259
1.0921004 0.22644961 0.20754009
1.1132698 0.22869664 0.21397682
1.1265658 0.23651445 0.2167473
1.0973859 0.24970943 0.20902848
1.1125875 0.24603075 0.20696357
1.1332034 0.2475937 0.21219335
1.1518202 0.25426006 0.21853986
1.1112086 0.26566178 0.2120288
1.1312054 0.26698381 0.20728919
1.1526816 0.26488262 0.20861527
1.1684916 0.27253777 0.21236518
1.1335359 0.28331035 0.21586245
1.1505799 0.28796571 0.20906231
1.1747239 0.29221386 0.20641553
1.1930857 0.29294914 0.21056136
1.2061777 0.29940337 0.21439782
1.157294 0.30107534 0.21376836
1.1729381 0.31356949 0.21857451
1.1960269 0.3126435 0.20445046
1.2143763 0.31122699 0.21021779
1.2300595 0.31805271 0.21294931
1.1902738 0.32435596 0.21500003
1.2147423 0.32893801 0.20429891
1.2320408 0.33272445 0.20633994
1.247154 0.3347379 0.21034004
1.219489 0.35291746 0.21161026
1.2305375 0.3537882 0.20921706
1.2456045 0.35160932 0.20334488
1.2699213 0.35234454 0.20977794
1.2832127 0.35830471 0.21158628
1.2296307 0.36199149 0.21226607
1.2609562 0.36792213 0.20082843
1.2948313 0.36215317 0.21337219
1.3085258 0.36632863 0.21310115
1.3221743 0.37575138 0.205448
1.3291342 0.39170611 0.20560887
1.309016 0.40969548 0.21314174
1.3205535 0.40298641 0.21444856
1.0944166 0.63869661 0.20550394
1.1077784 0.63459867 0.21218231
1.1154215 0.64564615 0.20632517
1.1118349 0.66797698 0.20617922
1.089257 0.68188369 0.21364623
0.97245735 0.11893648 0.23123932
0.98240489 0.11843115 0.23219222
0.99606282 0.12217778 0.23335429
1.0082653 0.13140965 0.23319376
1.0255375 0.14940888 0.22877109
0.99351835 0.17365128 0.23103432
1.00701 0.17494386 0.23767214
1.0344918 0.16199285 0.2205853
1.0475825 0.17050523 0.22669081
1.0087752 0.18420362 0.22766212
1.026484 0.19166636 0.23390898
1.0669464 0.184964 0.22815363
1.0831784 0.19585103 0.23075251
1.0344238 0.20326215 0.22885892
1.0484257 0.21154249 0.2312043
1.0637548 0.21299499 0.23918097
1.0910426 0.20356894 0.22800599
1.105907 0.2140339 0.23245142
1.0550714 0.22307032 0.22125916
1.0717655 0.22972846 0.22881281
1.0833049 0.23345768 0.23369089
1.1168914 0.22170538 0.23210034
1.1290836 0.23199493 0.23123069
1.0794811 0.24217021 0.2221795
1.0912209 0.24718177 0.22604051
1.1088954 0.25059932 0.23568061
1.1361316 0.24103636 0.22265276
1.149375 0.24693274 0.23328978
1.1649814 0.25973594 0.23969798
1.1137187 0.26570618 0.22514482
1.1271589 0.26806867 0.23245557
1.1434996 0.27239949 0.23791546
1.1737007 0.26757413 0.22792359
1.1861694 0.27597564 0.23110758
1.1364919 0.28147328 0.22625101
1.1510597 0.28852123 0.22984745
1.169482 0.29064918 0.23858634
1.1918948 0.28258723 0.22583333
1.2117182 0.29654378 0.22950515
1.1574349 0.30058926 0.22077535
1.1753182 0.30607945 0.23005556
1.1898587 0.31212828 0.23413192
1.2175301 0.30281863 0.22312534
1.2320507 0.31238243 0.22843626
1.2421846 0.3191697 0.22993225
1.1950481 0.3251752 0.22622386
1.2123675 0.334602 0.23064499
1.2269367 0.33970091 0.2366368
1.2530558 0.32801121 0.23066431
1.2660911 0.33891261 0.23153216
1.2134113 0.3452366 0.22134095
1.2330551 0.35233244 0.22944255
1.2497829 0.35687914 0.23604739
1.2757385 0.34618813 0.23220059
1.2938554 0.35719821 0.23354319
1.2386663 0.36302412 0.22313224
1.2522156 0.37125143 0.22856127
1.3131471 0.36860061 0.23163345
1.3241537 0.37741888 0.22567905
1.3288685 0.38975623 0.22571661
1.2989396 0.41225773 0.23220874
1.3138431 0.40767342 0.23376235
1.2291052 0.47984251 0.23939367
1.189817 0.53066945 0.23921719
1.1702774 0.55101407 0.23709692
1.1801267 0.54584599 0.23823297
1.1659378 0.56781304 0.23814325
1.1517721 0.58950806 0.23609212
1.1611111 0.58207726 0.23876995
1.1113313 0.61489415 0.23471311
1.1278415 0.61206257 0.23401991
1.141078 0.60073376 0.23627023
1.1073902 0.6254853 0.22522351
1.1257242 0.62673664 0.2295503
1.1219463 0.64564472 0.22794712
1.1112616 0.66950917 0.22617455
1.0865457 0.68210834 0.2334834
0.98053241 0.11911839 0.25209311
0.97060841 0.12078255 0.2511043
0.99498582 0.12259996 0.25333875
1.0108018 0.13435876 0.25351274
1.0187138 0.14434415 0.25485593
1.0254492 0.15193957 0.24686491
0.99071723 0.16717941 0.25398159
1.0072162 0.16590917 0.25168508
1.0283116 0.16712338 0.24979171
1.0488055 0.17117906 0.24406569
1.0358366 0.18862772 0.24190728
1.046711 0.19008672 0.24522388
1.0681616 0.18795472 0.24508192
1.0831052 0.19706476 0.24410556
1.0533643 0.20359051 0.2410915
1.0686972 0.20809633 0.24420319
1.0876042 0.20941693 0.24595299
1.1020929 0.2137205 0.24534416
1.0905989 0.22520369 0.24326122
1.1095692 0.22934914 0.2463955
1.1222469 0.23205477 0.24663728
1.114098 0.24212509 0.24334775
1.1291157 0.24688989 0.24546386
1.1440223 0.25165033 0.24736367
1.1347119 0.26166189 0.241422
1.1512159 0.26475924 0.24452709
1.1715176 0.26845717 0.24246812
1.1852473 0.27701718 0.2410363
1.1717896 0.28430998 0.24302988
1.1900672 0.28561521 0.24326615
1.2035748 0.29224318 0.24225986
1.1924963 0.30210862 0.24166045
1.2090385 0.30665219 0.24330062
1.2291925 0.31653172 0.24393845
1.2145836 0.32011533 0.24237829
1.2322495 0.33106345 0.2430914
1.2487788 0.33505848 0.24472158
1.2566137 0.34931257 0.24328202
1.2729349 0.35535365 0.2450659
1.2853258 0.35886598 0.2474139
1.2704028 0.37331197 0.25038049
1.2925727 0.36273706 0.25501481
1.3115263 0.36865932 0.25157875
1.3248487 0.37802964 0.24582407
1.3280481 0.39077708 0.24607044
1.2937074 0.41519281 0.2533944
1.3126531 0.40890038 0.25370967
1.2670332 0.43955612 0.25586513
1.2580752 0.45950872 0.24802352
1.2639999 0.45293158 0.25493526
1.2386599 0.47980982 0.24458204
1.2527648 0.47160092 0.24963862
1.2344642 0.49166402 0.25043732
1.2407887 0.49023172 0.259343
1.2157443 0.50685549 0.24397658
1.2290757 0.50254637 0.25334543
1.199609 0.52556634 0.24241208
1.2125208 0.52692932 0.25251827
1.2204595 0.52057499 0.25643057
1.1907957 0.54823315 0.24646626
1.2031542 0.54086876 0.25413358
1.1761237 0.56751662 0.24662976
1.1869847 0.56114304 0.25194421
1.159451 0.59442842 0.25328183
1.1657397 0.58704937 0.25325012
1.0986336 0.61297053 0.25197229
1.1089733 0.60795522 0.25834697
1.1395395 0.61789316 0.25566009
1.1467006 0.60716474 0.24934228
1.0928735 0.622177 0.2541447
1.1318064 0.62947237 0.25165582
1.1236349 0.64926243 0.24710046
1.1102026 0.6705187 0.24614134
1.1203277 0.66150773 0.25433826
1.0851798 0.68301183 0.25342482
0.97371656 0.12155592 0.27147102
0.99468631 0.12362975 0.27285343
1.0092874 0.13425744 0.27607554
1.0139323 0.15315217 0.27421564
0.97910345 0.17469943 0.27736062
0.99365777 0.16692054 0.27075925
1.2731071 0.37721425 0.26945588
1.2878507 0.36714897 0.27184486
1.3099505 0.36883053 0.26984951
1.3250787 0.37851834 0.26612309
1.3285779 0.39368314 0.26575941
1.2937267 0.41817275 0.27225816
1.3120999 0.41089207 0.27309945
1.3252771 0.40068203 0.27024326
1.2751859 0.43520972 0.26710105
1.2846718 0.42699727 0.27225503
1.2501519 0.4505614 0.27701205
1.2660083 0.45089468 0.26795581
1.2320424 0.46597379 0.27812737
1.2517474 0.46633193 0.27114606
1.2154467 0.49137542 0.27965105
1.22892 0.48663139 0.27595907
1.2464364 0.48085973 0.26402664
1.1957465 0.51177621 0.27923653
1.2107308 0.50805622 0.27642033
1.2270795 0.50490004 0.26904353
1.193033 0.52839601 0.27556929
1.2084379 0.52655417 0.26887041
1.173197 0.54884434 0.27659878
1.1902573 0.54645586 0.26972544
1.2014623 0.54120946 0.26401296
1.1522561 0.57015085 0.27841789
1.1721959 0.56966007 0.26883024
1.1881559 0.56005561 0.26214013
1.1181014 0.59602141 0.26586053
1.1340379 0.58962011 0.27321908
1.1537397 0.58822072 0.27006388
1.1651652 0.58206034 0.26679841
1.1186553 0.61153531 0.26285106
1.1303136 0.60776103 0.26603633
1.1475233 0.60166973 0.26625413
1.0924132 0.63056314 0.2676149
1.111223 0.62867129 0.26694393
1.1287572 0.62661695 0.26482683
1.117954 0.64324933 0.27289337
1.1220853 0.64963472 0.26637208
1.0990598 0.67895037 0.26993963
1.1117644 0.67087495 0.26819122
1.1205235 0.66304296 0.26745856
1.0788141 0.68593037 0.27282929
1.087141 0.68340147 0.2736963
0.96856707 0.12408417 0.29100287
0.99179083 0.12377781 0.29319865
1.008342 0.13454503 0.29440188
1.0168042 0.1497733 0.29637188
0.97846138 0.17980123 0.28507465
0.99295014 0.17400908 0.29064888
1.0062635 0.1645118 0.29154462
0.97781885 0.18782705 0.29333115
0.98418361 0.18383223 0.29553026
1.2865714 0.36847708 0.29115316
1.3085768 0.36796936 0.28783828
1.3244987 0.37829614 0.28598177
1.32903 0.39419824 0.28588468
1.2991433 0.41986436 0.28725171
1.3108776 0.41314435 0.29360229
1.3239036 0.40272349 0.28512153
1.2699072 0.43124348 0.28765151
1.2889051 0.4249551 0.29114541
1.2503252 0.44127271 0.2819522
1.2250931 0.47118196 0.2801789
1.2151535 0.4814136 0.28092477
1.0967202 0.63599968 0.28620845
1.1067456 0.63666815 0.28713006
1.1162065 0.64772201 0.28866145
1.1204877 0.65351379 0.28284377
1.1115409 0.67192233 0.28642052
1.1205101 0.66366601 0.2875365
1.0774083 0.6863755 0.28775713
1.0886571 0.68269491 0.29396194
0.9682191 0.12414408 0.31006286
0.99241066 0.12494069 0.31331843
1.0072453 0.13452142 0.31439915
1.0167807 0.15108407 0.31144151
0.9970147 0.17622685 0.30068275
1.0074019 0.17295939 0.31347561
0.98969698 0.18540913 0.30548286
1.2795376 0.37115395 0.31715992
1.2884992 0.36740217 0.31303665
1.3105881 0.3680937 0.30611324
1.3229825 0.37694487 0.30430835
0.77512872 0.39267451 0.31870902
1.3290628 0.38990018 0.30865124
1.2914897 0.41697663 0.31175113
1.3091679 0.41299078 0.31354615
1.3227136 0.40345192 0.31011015
1.2925751 0.42042151 0.30091897
1.1110547 0.63534153 0.31046367
1.1167549 0.6438576 0.30569574
1.121038 0.65428275 0.3079949
1.0948318 0.6797601 0.31473941
1.1099089 0.6731779 0.30632526
1.1210325 0.66427976 0.30766517
1.0854201 0.68343568 0.30870762
0.96810555 0.12393218 0.33116385
0.99080163 0.12535155 0.33325318
1.0058309 0.13483214 0.33435547
1.0156941 0.14397615 0.32995778
1.0218928 0.1567452 0.33411169
1.0145833 0.17670029 0.32742935
1.0225486 0.17006248 0.33371162
1.0235813 0.18211544 0.33949417
1.287967 0.35952276 0.33843598
1.2774925 0.36697954 0.33050472
1.2945482 0.36187288 0.33302224
1.3119571 0.36801037 0.32868949
1.3200197 0.37398073 0.32087687
0.771617 0.39506802 0.33389306
0.78568363 0.39146385 0.33259368
1.3289604 0.38652945 0.32800505
1.2945555 0.41566092 0.33218265
1.3133423 0.40913621 0.33417258
1.3261552 0.40049219 0.32560629
1.2594147 0.45228571 0.33865619
1.2498189 0.4623971 0.3357459
1.2311134 0.49426094 0.33732861
1.2186524 0.51310062 0.33690545
1.2218597 0.50748664 0.33595729
1.2065979 0.5292291 0.33437258
1.1913178 0.55015552 0.3342644
1.1708465 0.57077986 0.33368328
1.181535 0.56291616 0.33258638
1.1548455 0.59080637 0.33753246
1.1624539 0.58627445 0.33832321
1.135787 0.61474556 0.33347708
1.1447147 0.60727525 0.33670646
1.1284261 0.62962127 0.32962081
1.1238606 0.64861929 0.32686254
1.0929387 0.67942441 0.33467197
1.1077931 0.67403781 0.32619756
1.1221607 0.6636976 0.32956523
0.97118324 0.1232031 0.35157719
0.98941064 0.12567586 0.35321128
1.0044113 0.13497978 0.35431677
1.0150852 0.14386117 0.35000396
1.0241079 0.15469778 0.34547147
1.0318736 0.16947788 0.34542716
1.0476419 0.17645693 0.35217556
1.0283129 0.18692648 0.34345567
1.0499374 0.1898874 0.34550914
1.0695658 0.19377309 0.35136935
1.0736288 0.20609611 0.34584162
1.0883467 0.20855922 0.35241812
1.1043022 0.21579742 0.35603204
1.0967914 0.22894543 0.34484243
1.1127781 0.22964329 0.34915361
1.1260366 0.23482764 0.35305285
1.1145606 0.24749023 0.34554335
1.129611 0.25000477 0.34620968
1.1483009 0.25073814 0.35334057
1.1517495 0.26788241 0.34556517
1.1715691 0.2717396 0.34902427
1.1845129 0.27685803 0.35486645
1.1704824 0.28417075 0.34522831
1.1913428 0.28762627 0.349832
1.2101684 0.29678166 0.35281867
1.195912 0.30367777 0.34549093
1.2109799 0.30840331 0.3463757
1.2281033 0.31154001 0.35191828
1.2180147 0.32318249 0.34350857
1.2310059 0.32854414 0.34327629
1.249962 0.32928887 0.35070887
1.2630769 0.33456787 0.35701478
1.2355379 0.34285384 0.34390372
1.2538154 0.34578869 0.34292465
1.2704918 0.34673467 0.34845993
1.2893612 0.35327104 0.35382769
1.2676916 0.36212125 0.34083569
1.3119605 0.36691111 0.34754837
1.3272696 0.37997499 0.35151136
0.76974982 0.39601347 0.3537859
0.78809434 0.39211121 0.35015485
1.3293738 0.3910996 0.34531325
0.75532949 0.4035179 0.35720652
1.2976903 0.41774702 0.35250875
1.3119633 0.41084617 0.35316658
1.3252668 0.40113044 0.34560138
1.2774786 0.43214774 0.34647539
1.2881317 0.42640263 0.35307285
1.2591062 0.45599267 0.34259304
1.2705888 0.45004094 0.35139784
1.2507272 0.46964532 0.34657276
1.2386028 0.49194404 0.35010067
1.2463734 0.48302811 0.353376
1.2195952 0.51831406 0.34687233
1.2285736 0.50891149 0.35405681
1.2128398 0.5303911 0.35089841
1.220207 0.52369344 0.35680264
1.1945164 0.5535121 0.34837797
1.2019854 0.5438475 0.34939915
1.1730671 0.57648158 0.34057799
1.1851802 0.56605697 0.3497158
1.1668684 0.59129274 0.3506932
1.1522107 0.60867035 0.35210669
1.1337392 0.63371491 0.34659097
1.1410449 0.62505895 0.35243648
1.1279652 0.65025008 0.34897903
1.0910515 0.6793896 0.35459527
1.1060619 0.67508304 0.34609991
1.121594 0.66586536 0.34786522
0.97428477 0.12364727 0.3719542
0.99474752 0.12868464 0.37371421
1.0069686 0.13828778 0.37454823
1.0094727 0.14020306 0.37472084
1.0259631 0.15236467 0.36713606
1.0476348 0.1696524 0.36729297
1.060482 0.17714435 0.37328035
1.0697212 0.18437403 0.36888692
1.0845156 0.1957553 0.3694818
1.0951242 0.20410609 0.36560309
1.1071709 0.21116602 0.37289166
1.1278906 0.22688633 0.37123796
1.1418916 0.23670298 0.37395629
1.1527326 0.24458659 0.37639198
1.164923 0.25550312 0.36617562
1.17724 0.26467359 0.36631233
1.1882528 0.27311194 0.36606598
1.2077519 0.28713143 0.36757657
1.2216086 0.29534656 0.37450302
0.85141146 0.31882679 0.37908781
0.87119603 0.30129686 0.37913454
1.2288798 0.30382004 0.36600125
1.2434916 0.31404659 0.37047622
0.84513938 0.3268227 0.37848499
1.2547061 0.32277977 0.37336487
1.2683364 0.33348793 0.37146297
0.83277911 0.34949145 0.37331074
1.2882198 0.34743851 0.37305328
0.81435871 0.37113136 0.37130651
0.82387799 0.36271238 0.3712346
1.3123305 0.36668575 0.3663356
1.3258235 0.37843382 0.36650079
0.76884776 0.39349455 0.37264413
0.78861994 0.3909708 0.36577779
0.80513084 0.38388121 0.3658902
1.3294547 0.38912168 0.36548567
0.75057292 0.40391985 0.3720226
1.3161139 0.41302845 0.37649941
1.3254194 0.4017075 0.36917776
1.2971077 0.4303686 0.36511907
1.3054261 0.42459401 0.373631
0.79248255 0.45376462 0.37914848
1.2771522 0.45682192 0.36436394
1.2876529 0.4475747 0.36973339
0.80356216 0.46103579 0.37995186
1.2576811 0.47305915 0.36199677
1.2696559 0.46639371 0.37001741
1.2511487 0.48885497 0.36687103
1.2341866 0.50935888 0.37090355
0.88508666 0.52116179 0.37879267
0.9056291 0.53728247 0.37699753
1.2171316 0.53370619 0.3711471
1.2254444 0.52332199 0.3740575
0.91297513 0.54259306 0.37751412
0.92987144 0.55517924 0.37617743
1.1980639 0.55486494 0.37130657
1.2076088 0.5442819 0.3721137
0.9370482 0.56084585 0.37468585
0.94664776 0.56902277 0.37401789
1.1881056 0.56946397 0.36734909
0.97669828 0.5893513 0.37867901
0.98602974 0.59903288 0.37428641
1.1725955 0.58919513 0.37026459
0.99486256 0.60571831 0.37309271
1.0077312 0.61525941 0.37398967
1.1541092 0.61226982 0.37157384
1.0276103 0.62834668 0.37864494
1.1387998 0.63531107 0.36993283
1.1462936 0.62461233 0.37332284
1.0667185 0.65875906 0.37810904
1.1296653 0.65144658 0.36919934
1.0790343 0.67085791 0.37384486
1.090282 0.67654318 0.37129217
1.1079142 0.67440367 0.36639631
1.1211687 0.66655695 0.36622715
0.9724074 0.12409168 0.39186254
0.99321413 0.12892824 0.39366159
1.0058337 0.13893026 0.39451998
1.0131476 0.14438599 0.39000371
1.0299023 0.15729719 0.38819385
0.9643296 0.17987162 0.39682209
1.0385147 0.16492748 0.39083815
1.052263 0.1726715 0.38821003
1.0610976 0.17749286 0.3833766
0.95611095 0.19667631 0.39158162
0.96870059 0.19479412 0.39683372
1.013081 0.19397742 0.39950976
1.0293269 0.19863832 0.39907786
1.0737047 0.18954796 0.39117929
1.0841949 0.1972422 0.38992512
0.93957549 0.20996499 0.38296714
0.95316225 0.21248257 0.39320621
0.97348493 0.21471894 0.39707559
0.99341094 0.21436775 0.39877534
1.0134209 0.21398711 0.39958337
1.0313519 0.21367151 0.39897025
1.0537212 0.21312791 0.39822087
1.0720558 0.21445924 0.39935181
1.0936149 0.20583403 0.39286077
1.1105731 0.21633637 0.39138442
0.93401718 0.22718704 0.38890055
0.94962722 0.22511727 0.39409527
0.97519326 0.23362654 0.39374879
0.99455851 0.23283708 0.39499986
1.0139909 0.23440868 0.3973031
1.0344419 0.2325629 0.39920661
1.0540291 0.23314887 0.3986347
1.074192 0.23271471 0.39781713
1.092522 0.23404759 0.39899701
1.1193264 0.22566819 0.39732054
1.1287515 0.22997659 0.39232296
1.1410723 0.23586351 0.381731
0.91981328 0.25194472 0.38716
0.93191314 0.24641395 0.39160076
0.95506167 0.24808758 0.39616057
0.97534204 0.25223005 0.3949405
0.99208623 0.25385892 0.39357886
1.0147172 0.25379074 0.39318049
1.034579 0.25346202 0.39556235
1.0544262 0.25313848 0.39810091
1.0744365 0.25275773 0.3989042
1.0945661 0.25233525 0.3984406
1.1129962 0.25363314 0.39855796
1.1346281 0.2491135 0.3991628
1.1507585 0.24818718 0.39536202
1.1642886 0.25491059 0.38658762
0.89455563 0.27474213 0.38459998
0.91185558 0.26692951 0.38906401
0.93455237 0.26542121 0.39311954
0.95292521 0.26673907 0.39384472
0.97184622 0.27569151 0.39371571
0.99581635 0.2736336 0.39483342
1.0081919 0.27563322 0.39408278
1.0252042 0.27356064 0.39214978
1.0481622 0.27213514 0.39346114
1.0699933 0.2727859 0.39644653
1.0919249 0.27340138 0.39836231
1.1099819 0.27203578 0.39839393
1.1295485 0.2716226 0.3978667
1.1491963 0.27315611 0.39847201
1.1676848 0.26942599 0.39597178
1.1861622 0.27260953 0.38914749
0.89158303 0.28611177 0.38684314
0.91481072 0.28583646 0.39314669
0.93004322 0.28547233 0.39136165
0.94946438 0.28837532 0.39010224
0.96602213 0.29377413 0.39035937
0.98536158 0.29351181 0.39217341
1.0041468 0.29266739 0.39381766
1.0254254 0.29361171 0.39348283
1.0456805 0.2931453 0.39168602
1.0657344 0.29274946 0.39202788
1.0855403 0.2924403 0.39500496
1.1053836 0.29211795 0.39758167
1.1254003 0.29173505 0.3983202
1.1457913 0.29249066 0.39746499
1.16557 0.29092157 0.39834332
1.1872509 0.29218531 0.39948964
1.2085024 0.29034472 0.39023361
1.2222466 0.29749525 0.38454226
0.86924386 0.30701327 0.38237146
0.88542026 0.30631757 0.38898489
0.90518558 0.3060225 0.39239216
0.92526025 0.30561936 0.3925125
0.9454397 0.30517942 0.39151907
0.96697211 0.31312239 0.39067483
0.98599815 0.31429422 0.38925567
1.0059955 0.31391799 0.39019737
1.0258597 0.31358844 0.39255419
1.0458337 0.31322047 0.39374492
1.0660542 0.31276619 0.39231461
1.0874057 0.31368065 0.39172694
1.1063581 0.31271583 0.39397144
1.1259013 0.31168836 0.39668113
1.1494021 0.31011078 0.39787433
1.165976 0.31090811 0.3977136
1.1860633 0.31050041 0.39770165
1.2060182 0.31013912 0.3990941
1.2278712 0.30834624 0.39385837
1.2423351 0.31579077 0.38794157
0.8534466 0.32853568 0.38536876
0.86456305 0.32727391 0.3902812
0.8849768 0.32531509 0.392268
0.90570909 0.325968 0.39051548
0.9257493 0.3255769 0.39100146
0.94572449 0.32520846 0.39217934
0.96595681 0.33481443 0.39246717
0.98515433 0.33210513 0.39134318
1.006448 0.33388826 0.38907504
1.0264648 0.33350533 0.38981009
1.0463219 0.33317828 0.39224309
1.0662823 0.33281505 0.39357796
1.0894743 0.33149946 0.39221868
1.1066859 0.3319197 0.39111686
1.1265059 0.32810169 0.39330119
1.1488044 0.32930368 0.39609122
1.1663179 0.33091706 0.39776701
1.1864132 0.33050668 0.39766937
1.2065282 0.33008945 0.39736152
1.2264583 0.32973671 0.39901647
1.2510799 0.32729664 0.3949154
1.2652344 0.3345786 0.39082912
0.84635079 0.34708339 0.38722017
0.86557591 0.34689736 0.39378789
0.88816255 0.34545183 0.39420635
0.90593755 0.3480933 0.39278409
0.92617786 0.34555551 0.3901335
0.94624275 0.34515578 0.39035755
0.96652019 0.35474581 0.39016604
0.98646152 0.35438931 0.39170358
1.0056762 0.35434526 0.39209184
1.0267546 0.35353258 0.39041597
1.0468839 0.35311031 0.38995671
1.0668225 0.35275465 0.39152271
1.0868009 0.3523851 0.39266619
1.106524 0.35103011 0.39204428
1.1271574 0.35150617 0.39070457
1.1471651 0.3511264 0.39153773
1.1669196 0.35083514 0.39505985
1.186793 0.35050243 0.39731985
1.2068579 0.3501026 0.39754215
1.2269418 0.3496961 0.39756489
1.2452437 0.35103881 0.39904389
1.2710299 0.34394801 0.39534324
1.2886873 0.35207644 0.38986334
0.81315267 0.37384352 0.3837254
0.82788801 0.36780909 0.38866264
0.84484243 0.369037 0.39399451
0.86597753 0.36688542 0.39320588
0.88602233 0.36649269 0.39364326
0.90764278 0.36506534 0.39401692
0.92628205 0.36564764 0.39271227
0.94663185 0.36514822 0.38990894
0.96757972 0.37316957 0.38837302
0.98823667 0.37121788 0.38976258
1.0083103 0.37192908 0.39204568
1.0268942 0.3736124 0.39261943
1.0471585 0.37314281 0.39072537
1.0673853 0.3726863 0.38922787
1.0867636 0.3732813 0.38999191
1.1093663 0.3712512 0.3917799
1.1274083 0.37154707 0.39172634
1.1476007 0.3711026 0.39059478
1.1676189 0.37071913 0.39131504
1.1874653 0.3703959 0.39386079
1.2073181 0.37007025 0.39633968
1.2273179 0.36969319 0.39725441
1.2473441 0.36930695 0.39788964
1.2673244 0.36893669 0.39901197
1.2890666 0.37017924 0.39950866
1.309373 0.36911049 0.38868642
1.3239443 0.37879223 0.38641185
0.76516593 0.39367169 0.39363104
0.78857493 0.39226851 0.38750553
0.80670965 0.38776779 0.38910267
0.82583803 0.38801765 0.39658222
0.84777993 0.38770866 0.39704075
0.86629605 0.38690269 0.393507
0.88652122 0.3864468 0.39202851
0.90756077 0.38783914 0.39289713
0.92639863 0.38671044 0.39402497
0.94665021 0.38527042 0.39339876
0.97002649 0.39191633 0.39109001
0.98482686 0.39237988 0.38939667
1.0074078 0.39393836 0.38993424
1.0273343 0.39358702 0.3916277
1.0473796 0.39319408 0.39206046
1.0699486 0.39167696 0.39016154
1.0869951 0.39302155 0.38847217
1.1078956 0.39188227 0.38931963
1.127822 0.39153087 0.39101428
1.1478405 0.39114738 0.39173126
1.1680191 0.39070785 0.39074874
1.1881292 0.39029217 0.39049327
1.20802 0.38995323 0.39256629
1.2278541 0.38963422 0.39524236
1.2477202 0.38930398 0.39757991
1.2677722 0.38890868 0.39794016
1.2891796 0.38987124 0.39826918
1.3067305 0.38719863 0.39923376
1.326072 0.3892518 0.38982591
0.7470057 0.40506208 0.39154682
0.81095481 0.40818769 0.39830536
0.82616818 0.40783018 0.39672321
0.8461886 0.40744591 0.39741951
0.86531955 0.40744695 0.39700937
0.8866908 0.40651608 0.39391184
0.9079662 0.40851316 0.39148384
0.92706931 0.40562949 0.39171717
0.94699657 0.40527782 0.39340341
0.96723181 0.41488278 0.39366099
0.98840201 0.41157922 0.39229074
1.0061791 0.41361806 0.39027426
1.0278941 0.41351974 0.38936508
1.047869 0.41315147 0.39054653
1.0678418 0.41278386 0.39174771
1.0904272 0.40984318 0.39043686
1.1071212 0.41292095 0.38927478
1.12839 0.41146082 0.38866603
1.1483277 0.41110551 0.39024135
1.1682919 0.41074091 0.3915346
1.1884395 0.41031224 0.39088094
1.2105372 0.41021228 0.38987496
1.2285496 0.40973252 0.39157748
1.2481899 0.40926826 0.39627427
1.2681031 0.40892148 0.39810902
1.2895576 0.40797663 0.39769596
1.308676 0.40800545 0.39509106
1.3239789 0.40243945 0.38455877
0.82804066 0.42617795 0.39799094
0.8492291 0.42836368 0.39626873
0.86597747 0.42670318 0.39691645
0.88674712 0.42662498 0.39699885
0.90880173 0.42509553 0.39436585
0.9271965 0.42812642 0.39187509
0.94757241 0.42520502 0.390971
0.96771252 0.43484318 0.39223915
0.98765981 0.43448448 0.39371198
1.0104496 0.4312979 0.39256728
1.0272545 0.43435776 0.3910242
1.048377 0.43310225 0.38883388
1.0683556 0.43273279 0.38997519
1.0882989 0.43237552 0.39149123
1.1103737 0.42988622 0.39104554
1.1286693 0.43138897 0.38936576
1.1488559 0.43104929 0.38831377
1.1688155 0.43068635 0.38965729
1.1887808 0.43032146 0.39093989
1.2108641 0.42886826 0.39078611
1.2294765 0.42968595 0.39057037
1.2470663 0.43022797 0.39375636
1.2685723 0.42888606 0.39680955
1.2898443 0.42962694 0.39698926
1.304132 0.42658633 0.38945514
0.77370965 0.44287384 0.39281505
0.78711349 0.44602764 0.39320475
0.80695927 0.45445985 0.39179569
0.82178456 0.45299816 0.398238
0.85125667 0.44486418 0.39723071
0.86708415 0.44902596 0.39624193
0.88711631 0.44662452 0.3967613
0.90713727 0.44624001 0.3974517
0.92933321 0.44473395 0.39566833
0.94798023 0.44711283 0.39348215
0.96971971 0.45314381 0.39207524
0.98812056 0.45445192 0.39250237
1.0080965 0.45408332 0.39367223
1.0304178 0.45130694 0.39304268
1.0471667 0.45453089 0.3916803
1.0688031 0.45270479 0.38890451
1.0888366 0.45231596 0.38946328
1.1087792 0.45195901 0.39098674
1.1311146 0.4514049 0.39137098
1.1490877 0.45109686 0.38953626
1.1693461 0.45062932 0.38770407
1.189343 0.45025343 0.38865191
1.2092667 0.44990301 0.39037597
1.2302574 0.44810629 0.39117745
1.2509251 0.4483462 0.39212975
1.2701421 0.44817671 0.39134187
1.2861544 0.44768447 0.38750291
0.81088263 0.46436775 0.3825345
0.82724231 0.46919227 0.38920999
0.84628665 0.46923763 0.39708769
0.87037957 0.46451917 0.39814422
0.88775164 0.46661332 0.39635772
0.90756756 0.46621805 0.39656624
0.92756128 0.46584317 0.3975465
0.9499346 0.46435896 0.39658004
0.9690783 0.47133365 0.39508918
0.98843396 0.47447094 0.39285859
1.0086021 0.47403502 0.39198476
1.0285838 0.47366431 0.39309376
1.0509012 0.47422719 0.39356351
1.0688884 0.47280353 0.39168391
1.08925 0.47229999 0.38875681
1.1096059 0.47288322 0.38860345
1.1307445 0.47154558 0.39043009
1.1493025 0.47115031 0.3909395
1.1695293 0.47069383 0.38944346
1.1897995 0.47022229 0.38748676
1.2098057 0.46984303 0.38833398
1.2297757 0.47233373 0.39008957
1.2493218 0.47029364 0.39146203
1.2673669 0.46691725 0.38539958
0.83386469 0.4821921 0.38210714
0.8494736 0.48875576 0.38669583
0.86740398 0.4878664 0.39585781
0.88676161 0.48902997 0.39839458
0.90888524 0.48866948 0.39737102
0.92801821 0.48581198 0.39637691
0.94802922 0.48543099 0.39717299
0.96819311 0.49002871 0.39726675
0.98716706 0.49227035 0.39624521
1.0088251 0.49408561 0.3933022
1.0290704 0.49362266 0.3916083
1.0516641 0.49239677 0.39239344
1.0691217 0.49285054 0.39289117
1.0892853 0.49241623 0.39206654
1.1096008 0.4919287 0.38962901
1.1280141 0.49251077 0.38816217
1.1498172 0.49109882 0.38915485
1.1697869 0.49073234 0.39039093
1.1899114 0.49031171 0.38998327
1.2123432 0.48931801 0.38822305
1.2303118 0.48941743 0.38755706
1.2506764 0.48879322 0.38315639
0.87283427 0.5070591 0.38534495
0.88843191 0.50692874 0.39371336
0.90935183 0.50737858 0.39892611
0.92779058 0.50633967 0.39840016
0.94845653 0.50541013 0.39631826
0.96862948 0.5100047 0.39631635
0.98875111 0.5146172 0.39685854
1.0070044 0.51375723 0.39665172
1.0292113 0.51370192 0.39379725
1.0486926 0.51352674 0.39108929
1.0696074 0.51280922 0.39141527
1.0895666 0.51244652 0.39276317
1.1096579 0.5120374 0.3927063
1.1307657 0.51060236 0.3894704
1.1503017 0.51105797 0.38769433
1.1702883 0.51068556 0.38874963
1.1902418 0.51032472 0.3901566
1.2103361 0.5099147 0.39006999
1.2291031 0.5077399 0.38599235
0.89306718 0.52221656 0.38711017
0.91177177 0.526847 0.39248174
0.92694813 0.52818137 0.39775142
0.95024455 0.52378744 0.39848298
0.96898729 0.53000814 0.39619982
0.98906517 0.53557098 0.39509127
1.0082073 0.53166878 0.39609668
1.029327 0.53379011 0.39625198
1.0517858 0.53095704 0.39337993
1.0687367 0.53403831 0.39153442
1.0900872 0.53239298 0.39091724
1.1100564 0.53202665 0.39215836
1.1301198 0.53162724 0.39239788
1.1490605 0.52904236 0.39024925
1.1707366 0.53065741 0.38767213
1.1908221 0.53025037 0.38767749
1.2112247 0.53005183 0.3868942
0.9152084 0.5406822 0.38255465
0.92978936 0.54557168 0.38857844
0.94827133 0.54736 0.39534459
0.96907473 0.55010617 0.39895579
0.99136895 0.55238509 0.39693147
1.0097002 0.55404532 0.39503744
1.0297356 0.55377579 0.39559698
1.0497482 0.55339432 0.39637649
1.0720463 0.55079257 0.39431739
1.0903708 0.55207282 0.39152554
1.1105666 0.55197674 0.39042294
1.1305381 0.55160958 0.39163864
1.1505797 0.55121791 0.39211056
1.1691593 0.55047745 0.39079487
1.1921293 0.54975897 0.38539287
0.95283586 0.56517208 0.38645563
0.96982479 0.57009298 0.39214432
0.98981649 0.57463026 0.39659494
1.0097688 0.57432103 0.39802465
1.0301305 0.5737794 0.39550975
1.0502118 0.57336068 0.39513603
1.0702336 0.57297599 0.39581877
1.0903908 0.5725584 0.39506382
1.1097296 0.57346094 0.39258504
1.1310179 0.57157028 0.39022636
1.1510669 0.57117605 0.3906197
1.1713688 0.5707671 0.3907015
1.1870615 0.56917965 0.38365614
0.97397506 0.58576143 0.38183376
0.99218512 0.5927707 0.38731474
1.010296 0.59422237 0.39493766
1.0301603 0.59370518 0.398422
1.0504955 0.59355074 0.39583606
1.0707237 0.59293312 0.39429611
1.0907325 0.59255302 0.39511734
1.1129329 0.59217012 0.39505565
1.1311603 0.59164917 0.39239943
1.1520807 0.58963275 0.38834152
1.1720377 0.58506262 0.383892
0.99654186 0.60103697 0.38345468
1.0130641 0.61160672 0.38459662
1.0299975 0.61204314 0.39260963
1.0506288 0.61261868 0.39792022
1.0708894 0.61300385 0.39622116
1.0912207 0.6125108 0.39361456
1.1115516 0.61309552 0.39409316
1.1293041 0.61075914 0.39429328
1.1508441 0.61011791 0.38769889
1.031871 0.62456042 0.38600516
1.0512998 0.63403028 0.38864589
1.0712357 0.63301122 0.3962276
1.0913265 0.63260245 0.39617684
1.1096027 0.63200378 0.39271232
1.1332784 0.63222933 0.38806868
1.1456711 0.62370741 0.38669389
1.0574207 0.64417052 0.38501832
1.0727041 0.65160978 0.38754103
1.0899206 0.65446806 0.39279789
1.1144586 0.65347075 0.39406505
1.1269356 0.65072006 0.38449213
1.095412 0.66764843 0.38596946
1.1121593 0.66720164 0.3859953
0.9556582 0.12773472 0.41026598
0.97052002 0.12404126 0.41178632
0.99052197 0.12830132 0.41352853
1.0050284 0.13941145 0.40950307
1.013327 0.15113527 0.41116244
1.024423 0.15875763 0.40064159
0.97101486 0.16795123 0.41069004
0.9902643 0.17503172 0.41204751
1.0093462 0.17214662 0.40887415
1.0318682 0.17204994 0.40159902
1.0454328 0.17836434 0.40123183
0.97770768 0.18973565 0.40095547
0.99173057 0.19202954 0.40182215
1.0346508 0.18910915 0.40070543
1.0516946 0.19122905 0.401465
1.0682704 0.19790637 0.40093109
1.0785353 0.2076894 0.40041649
1.0937854 0.21738344 0.40028751
1.0989718 0.22728819 0.4003765
1.1124463 0.23369706 0.40071619
1.1293069 0.23666972 0.40003043
1.1194153 0.24688452 0.40026557
1.1361521 0.24990064 0.40089411
1.1496607 0.25629747 0.40086946
1.1549046 0.26618212 0.40034914
1.1695634 0.27257001 0.40061912
1.1702368 0.28099471 0.40029028
1.1803491 0.28568375 0.40045375
1.2415159 0.33446589 0.40001208
1.2517132 0.34427267 0.40021458
1.2669553 0.35396957 0.40017197
1.2822064 0.36366323 0.40003073
0.75971001 0.39514548 0.41316873
0.76999444 0.39327714 0.41168571
0.78544742 0.39627826 0.40550387
0.7363345 0.412882 0.41038471
0.74891585 0.40407103 0.41018397
0.79805547 0.40578038 0.41140249
0.80491298 0.41062075 0.40356502
0.73717099 0.42699099 0.4150238
0.74825889 0.43606862 0.41576838
0.81030726 0.42945927 0.410101
0.82122844 0.43313152 0.4026331
0.75956523 0.44163704 0.41664916
0.77000654 0.442231 0.41258737
0.78785157 0.44234666 0.40982455
0.80455309 0.4436968 0.40168071
0.82706094 0.4457131 0.4015381
0.8416667 0.45266229 0.40040341
0.86211973 0.47225532 0.4001886
0.92814124 0.51447415 0.4003253
0.93156815 0.52159035 0.40041527
0.94348276 0.5306561 0.40041837
0.95376956 0.12762314 0.43019164
0.96862507 0.12362087 0.43172151
0.9909128 0.12861127 0.43230593
1.0041004 0.13952303 0.43133318
1.0112486 0.15335941 0.43307894
0.96905249 0.16266674 0.4304761
0.99062359 0.16616184 0.42999727
1.0056878 0.16220921 0.43561411
0.75838798 0.39591521 0.43311864
0.77337801 0.39291817 0.43161318
0.78537017 0.39616227 0.42560014
0.73534417 0.41377985 0.43036163
0.74749559 0.40539575 0.43231434
0.79723018 0.40555897 0.42640692
0.8042658 0.4142102 0.42678425
0.73601741 0.42741889 0.42997593
0.75131661 0.43695372 0.43277681
0.79887486 0.43917996 0.42545468
0.80965793 0.42865965 0.42681602
0.75859827 0.44047362 0.42664632
0.77308714 0.44164354 0.43299639
0.78802669 0.44178438 0.43439782
0.95189035 0.1279791 0.45010275
0.9666903 0.12229443 0.45191199
0.98948634 0.12849563 0.45362413
1.0018864 0.1381917 0.45447189
0.96246862 0.15858454 0.45009062
1.0073875 0.14577031 0.45474014
0.9708904 0.16210639 0.45076725
0.9874534 0.16303903 0.45229536
1.0034357 0.16110224 0.45218843
0.75715363 0.39725095 0.45305818
0.77020895 0.39272121 0.45443606
0.78561318 0.39558566 0.4440667
0.73391229 0.41473597 0.45029509
0.74642009 0.40711111 0.45339832
0.79607862 0.4048501 0.4467102
0.80534554 0.4171322 0.44688937
0.73480463 0.4274351 0.44996095
0.75073117 0.43568084 0.45018339
0.76931816 0.43839738 0.45452327
0.79698771 0.43914154 0.44537807
0.80828547 0.43171984 0.44668576
0.77662402 0.44029957 0.4484483
0.78612047 0.44080982 0.45435023
0.9543103 0.12491179 0.47304365
0.96979445 0.12178409 0.47060859
0.99175227 0.13021165 0.47388053
1.0004581 0.13752675 0.46943411
0.96054804 0.15689689 0.47006509
0.99990296 0.1566686 0.47880149
1.0050519 0.14874727 0.473517
0.97130966 0.16150182 0.47092634
0.9852165 0.16152275 0.47146291
0.75546509 0.39758751 0.47466287
0.7683149 0.39234728 0.47436982
0.78479409 0.39544496 0.46744394
0.73232222 0.41584769 0.4702085
0.74733216 0.40654871 0.47092244
0.79561734 0.40436533 0.46649384
0.80442226 0.41592279 0.46652782
0.73328823 0.42762023 0.47158682
0.75041074 0.43487847 0.46965003
0.76729536 0.43671611 0.47236994
0.78964311 0.43876433 0.46982387
0.80589414 0.43187666 0.4670338
0.95303404 0.12489849 0.49051121
0.97309351 0.12195337 0.49149114
0.99401873 0.13158602 0.49414831
0.95472765 0.15375233 0.49223304
0.97182876 0.15922993 0.49282464
0.99353266 0.15781838 0.49323884
1.0046376 0.14706361 0.49463809
0.97912288 0.16054624 0.48676783
0.75408524 0.3980684 0.49126697
0.76643932 0.39287883 0.49427554
0.78437775 0.39566362 0.48582229
0.73044741 0.41650477 0.49011016
0.74498504 0.4071382 0.4927918
0.79475898 0.40399176 0.48652512
0.80354095 0.41489729 0.48699254
0.73141336 0.42821738 0.48981541
0.74737519 0.43487629 0.4910984
0.77117872 0.435963 0.49186614
0.79000753 0.43690088 0.49027801
0.80557585 0.4290131 0.48671922
0.96550262 0.11946535 0.51698822
0.95181203 0.12416846 0.51051998
0.97469765 0.12195456 0.50868386
0.99039662 0.12924081 0.5149402
0.95273566 0.15195692 0.50969189
0.97172552 0.15756583 0.51129442
0.991629 0.15697068 0.51318729
1.0029958 0.14771491 0.51456189
0.75627279 0.39672861 0.51496667
0.7663793 0.39334899 0.5126791
0.78291821 0.39616311 0.50576818
0.73093015 0.41610003 0.51127362
0.74561781 0.40639606 0.51096553
0.79350299 0.40415841 0.50650114
0.80237693 0.41459036 0.50699282
0.73255599 0.42972445 0.51332408
0.75046909 0.43494746 0.51148701
0.77038628 0.43502867 0.51335889
0.78610528 0.43619716 0.50671709
0.80381393 0.42860296 0.50666666
0.9672395 0.11895591 0.53391826
0.94930923 0.12429154 0.53038007
0.97453475 0.12033033 0.52785957
0.98987955 0.12814873 0.53574634
0.95151758 0.15111256 0.53100222
0.96981746 0.15649801 0.53124976
0.99140769 0.15524369 0.5343281
1.0012089 0.14665055 0.53285348
0.75517625 0.3963753 0.53329986
0.77311343 0.39374226 0.5300498
0.78690368 0.39820856 0.52785057
0.73040622 0.41550142 0.53033876
0.74502814 0.40614232 0.53202307
0.79593331 0.40740561 0.52571768
0.80349886 0.4173376 0.52710766
0.73293102 0.42983603 0.53110945
0.75354189 0.43397468 0.53190792
0.77348149 0.43515825 0.53374565
0.79428834 0.43260112 0.52573824
0.80544573 0.42730075 0.52696288
0.96716207 0.11856526 0.55234855
0.94645327 0.12401587 0.55022013
0.98914546 0.12786281 0.55411142
0.94787979 0.14980584 0.54950511
0.96589679 0.15502673 0.55123967
0.98720312 0.15417612 0.55437481
1.0007242 0.14400154 0.55466986
0.75352615 0.39694917 0.55322534
0.77122444 0.39361432 0.54997593
0.78682876 0.39810002 0.54515231
0.72968805 0.41691995 0.54967695
0.7436977 0.40729946 0.55195951
0.79663324 0.40871954 0.54965246
0.80245167 0.41797853 0.54708773
0.73297566 0.42930999 0.54922068
0.75163579 0.43300113 0.55186033
0.77159941 0.43537021 0.55366123
0.79239959 0.43248481 0.54566395
0.80382109 0.42795181 0.54688817
0.95979816 0.11723602 0.57682401
0.9670893 0.1184091 0.57077163
0.930318 0.13662517 0.57341093
0.94488639 0.1238662 0.57118219
0.97980702 0.12183493 0.57855564
0.98967433 0.12827879 0.57352948
0.93731111 0.14587927 0.57376444
0.9459908 0.14967722 0.5694313
0.96834415 0.15470153 0.56994557
0.9903661 0.14964598 0.57360882
0.75258851 0.39839891 0.57318902
0.76932645 0.39304394 0.56991577
0.78656942 0.39801222 0.56635004
0.73622191 0.41099697 0.57123387
0.74423265 0.40647471 0.57213676
0.79523826 0.40807563 0.56850964
0.8010537 0.41862559 0.56703454
0.73523468 0.43055233 0.56547219
0.74971765 0.43143812 0.57183093
0.76970136 0.43479767 0.57360113
0.7924062 0.43172681 0.56679422
0.80194253 0.42845151 0.56176966
0.95863998 0.11613929 0.59349358
0.96835744 0.11803669 0.59267795
0.93416238 0.13198727 0.58900028
0.94586295 0.12268221 0.58873296
0.9783867 0.12155813 0.59350586
0.99063402 0.12973118 0.59338444
0.93827856 0.15070587 0.59005576
0.95296985 0.15360528 0.59193671
0.97406501 0.15397966 0.5920316
0.99312377 0.14788944 0.59402585
0.78141117 0.37998831 0.59905118
0.75262922 0.39924696 0.58823973
0.7699343 0.39060423 0.58719867
0.78750104 0.39691982 0.58843207
0.79549575 0.40949553 0.58791673
0.80018985 0.41910765 0.58201212
0.75309324 0.43075997 0.59227073
0.76778662 0.43340158 0.59356666
0.78995305 0.43139556 0.58782256
0.95573658 0.11630094 0.6133219
0.96376288 0.11701554 0.61237884
0.93693411 0.12699145 0.60984105
0.94662648 0.12153649 0.61061716
0.97649622 0.12135631 0.61343431
0.98920172 0.12986523 0.61237192
0.95795822 0.15717727 0.60356808
0.97022444 0.15561646 0.61161911
0.99046421 0.14767033 0.61388254
0.91453636 0.17747408 0.60960972
0.93374151 0.17019242 0.60706085
0.95007938 0.16925281 0.6135906
0.89777529 0.1939255 0.60928106
0.91208148 0.19177145 0.60948056
0.93256819 0.18829679 0.61590719
0.87824899 0.2181803 0.60773557
0.8920728 0.21349841 0.60727865
0.91050792 0.21049756 0.61471617
0.87524307 0.23148197 0.60654962
0.89100415 0.2312215 0.61187345
0.90480816 0.22517824 0.61834359
0.85900801 0.25351679 0.60520649
0.87333304 0.25319129 0.612023
0.88479805 0.24522418 0.61580038
0.83943766 0.27890438 0.60433435
0.85499913 0.27486134 0.61020529
0.86707962 0.26716399 0.61498666
0.83614141 0.29572809 0.60685849
0.84826922 0.29088467 0.61360955
0.79954219 0.31987926 0.60876769
0.81426942 0.31697008 0.60525769
0.83257329 0.31563246 0.61389256
0.8429653 0.30933404 0.61980206
0.79949069 0.33479008 0.60551184
0.81146592 0.33348832 0.6069566
0.82667553 0.33460891 0.61743671
0.7902925 0.34999821 0.60586584
0.80950075 0.35251307 0.6115731
0.78583199 0.37387231 0.60307288
0.80238289 0.37497261 0.61236614
0.7726807 0.38106379 0.60153329
0.79258358 0.39484948 0.6015299
0.80053633 0.3900452 0.61315119
0.79775202 0.40993157 0.6072095
0.75983888 0.43073842 0.60798115
0.76668882 0.43104908 0.61466295
0.78862834 0.42903313 0.60986274
0.9525525 0.11633331 0.63144594
0.96578133 0.11677635 0.63183057
0.9447335 0.12121338 0.63054931
0.97459936 0.12084144 0.63337243
0.98737574 0.13039339 0.63526535
0.97518086 0.15710026 0.63057339
0.98657882 0.14784718 0.63361073
0.95399308 0.1754927 0.62963355
0.96396327 0.16582519 0.63089025
0.93372321 0.19531304 0.62707323
0.94395208 0.18544412 0.62836087
0.91519052 0.21399599 0.63225126
0.92566371 0.20451933 0.62768662
0.89576012 0.23833728 0.63331634
0.90522665 0.22725016 0.63382435
0.87763608 0.25897545 0.63204932
0.88633746 0.25118649 0.62739259
0.81687886 0.27147883 0.63869303
0.82571149 0.26077938 0.63987666
0.87148827 0.27149546 0.6280396
0.80684042 0.28595078 0.63727176
0.85577303 0.29320019 0.6290018
0.79642522 0.30084109 0.63819903
0.83755809 0.31975842 0.63166493
0.84471875 0.31022519 0.6299876
0.78667939 0.32106933 0.63872778
0.8317858 0.33390057 0.63103241
0.77225506 0.34631166 0.63653368
0.81839758 0.3536911 0.62802792
0.82535595 0.34464827 0.6323278
0.75740021 0.37602225 0.63970268
0.76722676 0.36151221 0.63936973
0.81308609 0.368242 0.62938982
0.75210965 0.38182202 0.63901377
0.80560595 0.38543338 0.62909651
0.79888439 0.40510473 0.63034499
0.75896478 0.42994016 0.63304973
0.77312785 0.42972293 0.63197589
0.79368824 0.42319813 0.62648994
0.94854593 0.1162864 0.65117007
0.96811199 0.11696941 0.6519841
0.94330359 0.12046766 0.64551419
0.98572087 0.13006979 0.65421498
0.97050273 0.15585011 0.65193385
0.98321187 0.14753443 0.65340388
0.89350539 0.1792056 0.65167999
0.90291268 0.17922437 0.65843451
0.93917871 0.17832893 0.65327054
0.94965994 0.17123532 0.6507743
0.96355981 0.16053122 0.65112633
0.87525374 0.19940394 0.64568865
0.89047194 0.19378203 0.65537107
0.90994251 0.1907683 0.65513432
0.92883396 0.19021171 0.64799452
0.8579191 0.21972531 0.64425957
0.86977601 0.21326423 0.65017539
0.8871544 0.21191043 0.65731835
0.90823919 0.21110713 0.64905548
0.84933925 0.23184681 0.64389199
0.86398035 0.23024309 0.65453374
0.88922417 0.23278189 0.65122402
0.83537346 0.24927682 0.64183289
0.85109037 0.24701095 0.65136933
0.87316948 0.25295526 0.65002328
0.83359569 0.26929438 0.64851582
0.85324407 0.27062511 0.65168101
0.8651551 0.2656166 0.64860392
0.81325454 0.28986371 0.64413315
0.82861811 0.28575373 0.64968604
0.84786361 0.28913695 0.64675725
0.79621804 0.31097794 0.64224434
0.81022274 0.30552197 0.64729798
0.83295679 0.3057372 0.6497758
0.84647077 0.30239812 0.64046013
0.79133409 0.33049637 0.64438957
0.8109163 0.32589704 0.64889914
0.82580948 0.32529244 0.64715511
0.77680558 0.35140663 0.6424579
0.78988975 0.34524947 0.64607829
0.8135047 0.34567019 0.64645088
0.77095366 0.36881539 0.64452958
0.79154354 0.36631194 0.64869106
0.80740857 0.36636463 0.64475477
0.75044465 0.38976118 0.65252125
0.76783776 0.38155329 0.65310138
0.79083508 0.38743773 0.65002131
0.80220032 0.38095358 0.64375681
0.79545295 0.40621859 0.64731479
0.75206119 0.42804644 0.65256208
0.77199095 0.42874828 0.65441471
0.7917642 0.42314294 0.64641035
0.93955129 0.11896348 0.67536002
0.94611251 0.11547321 0.66798544
0.9686569 0.11639303 0.67315912
0.98434925 0.1301201 0.67418402
0.91836596 0.15900749 0.6619978
0.92494494 0.15907711 0.66854745
0.97090858 0.1575585 0.67034054
0.98272693 0.14890897 0.67341268
0.91184866 0.17209697 0.66448891
0.93336809 0.17484999 0.66958803
0.94989592 0.17218751 0.66955614
0.96174294 0.16395938 0.67094213
0.89330488 0.19698274 0.67216367
0.90892678 0.19317329 0.67003429
0.92697096 0.18859893 0.6668582
0.8791244 0.21513772 0.6715312
0.8866508 0.20915025 0.6697222
0.90785825 0.20957953 0.67115533
0.86672819 0.22882855 0.67304105
0.88839346 0.23113769 0.67223918
0.85153431 0.24856508 0.67410034
0.86847353 0.24391329 0.66788465
0.82842088 0.27056712 0.67852902
0.84599221 0.26425058 0.67389715
0.81448013 0.29490882 0.67789519
0.82874209 0.28825665 0.67656273
0.84239244 0.28118062 0.67964643
0.81145978 0.30961233 0.67713279
0.8244338 0.30333096 0.67777455
0.79314876 0.33218014 0.67854017
0.80573058 0.3254925 0.67656988
0.79022419 0.34887397 0.67711604
0.80327934 0.34201047 0.67945325
0.77431422 0.37458852 0.67301279
0.78718871 0.36560643 0.6768707
0.75482792 0.38871539 0.66919237
0.77034032 0.38326353 0.66351908
0.78531069 0.39047882 0.66676694
0.79101777 0.40691835 0.66697401
0.7519722 0.42708594 0.67101002
0.77009898 0.42847061 0.67434549
0.78941745 0.42335856 0.66628206
0.93796682 0.11842835 0.69030333
0.95381624 0.11160594 0.69201964
0.97213805 0.11758214 0.69354725
0.97894675 0.12324983 0.69400144
0.98391259 0.13365716 0.69412613
0.92422426 0.15952849 0.68263179
0.97296131 0.15256566 0.69289976
0.98157275 0.14853746 0.68839115
0.89978009 0.17095733 0.69000477
0.91028392 0.17331141 0.68184519
0.92048353 0.16329384 0.68215555
0.94986808 0.17189121 0.69040096
0.96032298 0.1637066 0.68589163
0.88642812 0.1867817 0.68783343
0.90042883 0.18009329 0.68482625
0.92859012 0.19249105 0.68776995
0.87093204 0.21067595 0.68363667
0.88078541 0.20047414 0.68380922
0.91139132 0.21133792 0.69222325
0.92033041 0.20226717 0.6909079
0.85127014 0.23106331 0.68281621
0.86105716 0.22088492 0.68369323
0.89424312 0.23121387 0.69352937
0.90310371 0.22155911 0.69200134
0.87412429 0.25145751 0.68650723
0.88292897 0.24272829 0.68907326
