# .PCD v0.7 - Point Cloud Data file format
VERSION 0.7
FIELDS x y z
SIZE 4 4 4
TYPE F F F
COUNT 1 1 1
WIDTH 1382
HEIGHT 1
VIEWPOINT 0 0 0 1 0 0 0
POINTS 1382
DATA ascii
0.11668022 -0.34728202 0.23025392
0.15037543 -0.34783769 0.22701812
0.11619668 -0.32825795 0.23137489
0.1204984 -0.33037832 0.23983106
0.15025967 -0.32840925 0.22837192
0.11472867 -0.30686051 0.233814
0.14997369 -0.30749664 0.2305737
0.11170664 -0.28579572 0.22863816
0.14960276 -0.28706974 0.23112047
0.11006253 -0.2677184 0.22725217
0.14696376 -0.26775664 0.22977592
0.11023028 -0.24730064 0.2320565
0.14619198 -0.24489872 0.22960567
0.10720408 -0.22467382 0.2303526
0.13917968 -0.22226654 0.22065957
0.14506085 -0.22530441 0.2305862
0.10581344 -0.20863894 0.22841972
0.13973427 -0.20913649 0.22190067
0.14581823 -0.2039502 0.23357324
0.10640658 -0.19147757 0.233798
0.13955393 -0.18625654 0.22382066
0.14386007 -0.18550488 0.2322197
0.10572524 -0.17313817 0.23324326
0.13850236 -0.16533747 0.22518921
0.14434828 -0.1700926 0.23647751
0.10285141 -0.15527119 0.2322959
0.14281853 -0.15157984 0.23385637
0.098947808 -0.13894986 0.23066574
0.10096087 -0.13233431 0.23051772
0.14382708 -0.13656217 0.230619
-0.0089195818 -0.1042767 0.23896791
0.0043951017 -0.10099006 0.23695472
0.033769019 -0.10630693 0.23800211
0.046563696 -0.10108908 0.23681211
0.092694029 -0.10525078 0.23298065
0.10206764 -0.11821491 0.22683161
0.13493735 -0.10009468 0.23021667
0.14469911 -0.11312397 0.2286866
-0.02015017 -0.096686922 0.2386858
-0.014745939 -0.095943496 0.23874497
0.0084935809 -0.094878696 0.23770872
0.02742213 -0.094623134 0.23717356
0.050107613 -0.095134541 0.23822987
0.071102217 -0.095220312 0.23858157
0.098309122 -0.097511582 0.22951683
0.11120341 -0.093186073 0.22988315
0.12910973 -0.097702622 0.22928563
-0.22410035 -0.54892915 0.25593668
-0.2123024 -0.55574477 0.24691088
-0.1888994 -0.55261326 0.25111085
-0.17909051 -0.54399419 0.2487974
-0.16998252 -0.52918851 0.25159997
0.13985647 -0.52192771 0.25857458
0.14550927 -0.52323693 0.25163543
0.1636869 -0.52170622 0.24638513
-0.16612932 -0.50761944 0.24486831
-0.15517835 -0.51205719 0.2557233
0.13479334 -0.50747532 0.2517401
0.17155865 -0.50878215 0.2482115
0.1287837 -0.48731279 0.25355527
0.16942683 -0.48876709 0.25042003
0.13527042 -0.46833116 0.2482022
0.15081224 -0.46605298 0.2543112
0.16201772 -0.47040531 0.24984427
0.13187987 -0.44611442 0.24295488
0.15436926 -0.45114839 0.24803346
0.13069217 -0.42752331 0.2427787
0.1504439 -0.43151498 0.24819785
0.13345604 -0.41339979 0.24464881
0.14965674 -0.41113141 0.24860181
0.1340192 -0.39382544 0.24597242
0.14954564 -0.38956517 0.24623731
0.1350852 -0.37214285 0.24762133
0.15067092 -0.37061161 0.24779674
0.12856346 -0.35122684 0.24422117
0.14795911 -0.34822389 0.24854785
0.13291056 -0.33107552 0.24754357
0.14926974 -0.32989532 0.24835502
0.13048559 -0.31277516 0.24712685
0.14811754 -0.30859083 0.2493467
0.11935797 -0.29050839 0.24139389
0.12871537 -0.29158244 0.24702521
0.14795828 -0.28939086 0.24939907
0.11767775 -0.27448675 0.24107459
0.12898937 -0.27096519 0.24808875
0.14790307 -0.2664133 0.24863051
0.12664747 -0.25066504 0.24837399
0.14899942 -0.2460912 0.24652578
0.11791702 -0.23335418 0.24399599
0.12812532 -0.2311047 0.25031513
0.14807501 -0.22788118 0.24687378
0.11381899 -0.21368283 0.24184555
0.12743756 -0.20916481 0.25107917
0.14548087 -0.20628555 0.24922365
0.11564078 -0.1944758 0.24490249
0.13084191 -0.18876405 0.25308296
0.14438348 -0.18765931 0.24865887
0.11417979 -0.17250109 0.24419254
0.12817822 -0.17044452 0.25281903
0.14332339 -0.16451715 0.2462033
0.11311305 -0.1507488 0.24859381
0.13191114 -0.15317515 0.25580889
0.14217041 -0.14547002 0.2535103
-0.0069154319 -0.12047613 0.25996956
0.034270551 -0.12465205 0.25397584
0.05236499 -0.1242156 0.25023496
0.073337078 -0.12577274 0.25704142
0.093932308 -0.12709214 0.25191218
0.10475062 -0.13898838 0.25108618
0.14521602 -0.13123015 0.24808504
-0.026721112 -0.1107166 0.24473941
-0.01094358 -0.11278392 0.24723439
0.0098572224 -0.11200212 0.2465909
0.027725842 -0.11677708 0.24782999
0.052651405 -0.1131082 0.24226305
0.073103659 -0.11114189 0.24599586
0.09161137 -0.11139559 0.24783872
0.10163072 -0.1188447 0.242072
0.13633241 -0.1018555 0.24745795
0.14435625 -0.11230736 0.24552782
-0.025519181 -0.093212634 0.24461828
-0.0081944829 -0.086696923 0.24960475
0.012540822 -0.085750654 0.2500349
0.030564616 -0.086111888 0.24964671
0.052494597 -0.087183617 0.24769937
0.066659547 -0.087845206 0.2521365
0.088447839 -0.093160659 0.24769473
0.11280832 -0.092908308 0.25178856
0.12572071 -0.096657917 0.25420302
-0.22407269 -0.54740852 0.26802438
-0.20828168 -0.55593997 0.26793101
-0.18560186 -0.55122352 0.27157989
-0.17424494 -0.54128057 0.27057204
-0.16781478 -0.53451484 0.26603672
-0.15273899 -0.52426571 0.26964775
-0.13854694 -0.5228942 0.279708
0.14724104 -0.52388424 0.27246276
0.16066338 -0.52326602 0.26099801
-0.14504853 -0.51381499 0.26569009
-0.13389614 -0.51201087 0.27138346
-0.11943588 -0.51320744 0.27833399
-0.048247945 -0.50405878 0.27993321
0.13450827 -0.50693601 0.27063999
0.17038018 -0.51246959 0.26910943
0.091611229 -0.49314389 0.27989751
0.12994377 -0.48725867 0.27369156
0.1690415 -0.49064323 0.27233493
0.13858071 -0.47810021 0.26531431
0.15319206 -0.47713032 0.26951846
0.16031399 -0.4758625 0.26013815
0.11286692 -0.14059375 0.26310682
0.13016459 -0.14358453 0.27135733
0.0030264435 -0.12009006 0.26210853
0.035586879 -0.12523267 0.26308164
0.049902137 -0.12604707 0.26904339
0.06876187 -0.129989 0.27223831
0.091681682 -0.13239725 0.27128798
0.10673082 -0.13696538 0.26553676
0.14342198 -0.13377361 0.27016336
0.014234731 -0.1173557 0.27155566
0.027102575 -0.11692452 0.27068031
0.040391974 -0.11424565 0.27669251
0.13559768 -0.1011939 0.26681906
0.1456127 -0.114334 0.27029318
-0.01009112 -0.084533773 0.26215228
0.0053651398 -0.082685463 0.27108461
0.028140089 -0.082461722 0.26722977
0.047241818 -0.082641825 0.27071989
0.069671921 -0.086536571 0.27142382
0.090294167 -0.091298565 0.26824009
0.10712717 -0.092282459 0.26944476
0.12336487 -0.095892988 0.2723051
0.014101776 -0.079128258 0.26811057
0.028204463 -0.078933716 0.27096468
-0.22173342 -0.54862881 0.29018635
-0.2107821 -0.5546571 0.28776747
-0.18858936 -0.55259317 0.29220992
-0.17552461 -0.54436469 0.29055285
-0.16723028 -0.53816128 0.28258291
-0.15073206 -0.53203827 0.29152325
-0.1297126 -0.52524066 0.28937835
-0.11145715 -0.52321601 0.28978485
-0.093660757 -0.52176797 0.28931305
-0.073321484 -0.52312022 0.29422238
-0.052190665 -0.52257884 0.29289985
-0.029601043 -0.52283889 0.29174453
-0.01094471 -0.52246165 0.2965185
0.0036061283 -0.52038389 0.29977876
0.14750706 -0.52419204 0.2889055
0.16471033 -0.52193749 0.2876139
-0.093571849 -0.5174666 0.28459448
-0.071216002 -0.51420891 0.28327322
-0.051329758 -0.51131022 0.28266814
-0.032510534 -0.51138419 0.28212988
-0.009020986 -0.51398462 0.2842184
0.011954986 -0.51420951 0.28656748
0.030347146 -0.51079005 0.28829381
0.050324775 -0.50667036 0.28752971
0.071676008 -0.50657648 0.29050002
0.092369512 -0.50544345 0.29238892
0.11190917 -0.50438064 0.29331779
0.13046099 -0.50758928 0.29210052
0.17173041 -0.51088971 0.29092303
0.071329698 -0.49805984 0.28033549
0.095182374 -0.48881015 0.28165546
0.10942584 -0.49091652 0.28478217
0.12482667 -0.48376054 0.28493384
0.15581727 -0.48044485 0.28415203
0.16835813 -0.48906842 0.29232275
0.11230808 -0.47836643 0.29494679
0.12809299 -0.47824854 0.29556334
0.14905104 -0.4785018 0.28956485
0.11826267 -0.14015634 0.28480309
0.13247585 -0.14137247 0.29283902
0.074002475 -0.12471827 0.28623646
0.090720303 -0.12929273 0.28973404
0.11136179 -0.13757929 0.29099914
0.14601532 -0.12786734 0.28489542
0.015442874 -0.10509413 0.28426039
0.034910556 -0.10702762 0.28710723
0.051953912 -0.10752383 0.2886388
0.070309773 -0.11538097 0.2908124
0.1376915 -0.10285281 0.28869221
0.14524056 -0.11355503 0.28664005
0.01241163 -0.09032356 0.28244781
0.029358456 -0.090450637 0.28549278
0.048670735 -0.090613358 0.28982186
0.068001546 -0.090178438 0.29045117
0.090968393 -0.09182407 0.28828645
0.11087532 -0.093511514 0.29235914
0.12506206 -0.09692423 0.28994352
-0.22260286 -0.5472796 0.311104
-0.20648262 -0.55529279 0.31129879
-0.18844476 -0.55233037 0.31106925
-0.17209017 -0.54150218 0.30691224
-0.16311698 -0.53710729 0.30918932
-0.14911966 -0.53289843 0.31268889
-0.12762751 -0.52924186 0.30712268
-0.10814404 -0.52681315 0.31145796
-0.087537758 -0.52557015 0.309091
-0.070963003 -0.52594811 0.30915052
-0.050632421 -0.52467996 0.31100148
-0.029497769 -0.52388036 0.30989301
-0.012307066 -0.52241015 0.30991161
0.0013436899 -0.52040249 0.30955592
0.13876157 -0.52106327 0.30783644
0.14745611 -0.52467102 0.30981466
0.16172826 -0.52366829 0.30222085
-0.0014876614 -0.51806647 0.3194139
0.011997427 -0.51827174 0.30686623
0.028674543 -0.51347333 0.31183553
0.049022652 -0.51140434 0.30674919
0.06831082 -0.50974149 0.30967191
0.086901546 -0.50702226 0.31302375
0.10887595 -0.50589991 0.30793214
0.12738115 -0.50889397 0.31139717
0.17123207 -0.51331794 0.310249
-0.15673968 -0.48238838 0.31735221
-0.12515938 -0.48518234 0.31654513
-0.11415207 -0.48587614 0.31881765
-0.082468458 -0.48302543 0.31551561
-0.068743721 -0.48229241 0.31876838
0.15912713 -0.48075622 0.31560028
0.16883972 -0.48913547 0.31078595
-0.0101273 -0.46787971 0.31674987
0.0054632174 -0.46309814 0.3149344
0.11879652 -0.47699961 0.30665144
0.12925135 -0.47615805 0.31527385
0.14972953 -0.47809443 0.30768257
0.13001214 -0.14145377 0.31111634
0.094119862 -0.12444341 0.30411378
0.10927324 -0.13440499 0.30857667
0.12145397 -0.13997757 0.31626832
0.14619772 -0.12766524 0.30868387
0.074482262 -0.10709435 0.30828491
0.084511995 -0.11131088 0.30765826
0.13602689 -0.10196002 0.30893183
0.14497773 -0.11065017 0.30837467
0.067552447 -0.0982721 0.30237895
0.087762386 -0.095355444 0.30559307
0.10652182 -0.094257757 0.3118889
0.12263265 -0.096696287 0.30996421
-0.22623751 -0.54355192 0.3241539
-0.21401113 -0.55196381 0.33046743
-0.19285218 -0.55334628 0.33251274
-0.17662308 -0.54150593 0.32646751
-0.16728355 -0.53323758 0.32961988
-0.15171051 -0.52463692 0.33381599
-0.1318353 -0.52584165 0.32638595
-0.11244525 -0.52397346 0.32714853
-0.091523051 -0.52191955 0.32565576
-0.071454138 -0.52290678 0.32334059
-0.042850547 -0.52239072 0.32053939
-0.033248186 -0.52059901 0.32272691
0.13973427 -0.52453005 0.33339065
0.15040943 -0.52573496 0.33041999
0.16553277 -0.52133626 0.32887125
-0.12661386 -0.5169161 0.33573776
-0.11011346 -0.51055241 0.337026
-0.087499522 -0.51090759 0.33504388
-0.071545869 -0.50688589 0.33586106
-0.051376827 -0.51468313 0.33138305
-0.032237593 -0.5111618 0.33146289
-0.011004359 -0.51170754 0.32810399
0.011071659 -0.50781083 0.3282674
0.029904772 -0.50605029 0.32629377
0.05083039 -0.5047614 0.32555771
0.070209004 -0.50248194 0.32746834
0.09332481 -0.50183582 0.32550141
0.11258682 -0.50204718 0.32588482
0.13236453 -0.50755852 0.3319723
0.17216927 -0.51188725 0.33222339
-0.16982448 -0.48625603 0.33257315
-0.15366971 -0.48545793 0.32856232
-0.13065489 -0.48514056 0.33277452
-0.10864529 -0.48943868 0.33256376
-0.08913476 -0.49068362 0.32982507
-0.070381843 -0.49123627 0.33224198
-0.047915298 -0.48953268 0.33107644
-0.028790819 -0.48811516 0.3332234
-0.0079850582 -0.49168992 0.33599108
0.011015294 -0.48735479 0.33597645
0.028862167 -0.49194708 0.33640218
0.0515543 -0.49119297 0.33600578
0.068566367 -0.49206889 0.33559307
0.087629691 -0.49210498 0.33571741
0.11268839 -0.49932432 0.33494735
0.16976289 -0.48838133 0.33101246
-0.0071113813 -0.47455189 0.32775804
0.011359635 -0.4673512 0.32641035
0.029376948 -0.47243273 0.3332867
0.13571952 -0.47632694 0.32127854
0.15034659 -0.47544271 0.33033738
0.11703831 -0.14046647 0.33580688
0.13318025 -0.14525288 0.33427295
0.099744663 -0.1220993 0.32345736
0.11173549 -0.13348517 0.32444024
0.14661682 -0.12795801 0.32604685
0.091577776 -0.11029711 0.32273731
0.13345459 -0.1019211 0.32719648
0.14421046 -0.11047357 0.32800472
0.098698586 -0.096718669 0.32540795
0.11229575 -0.095385298 0.33353138
0.12049329 -0.09657681 0.32575405
-0.22483486 -0.54417568 0.34679955
-0.21183746 -0.55224776 0.34988794
-0.19071303 -0.5520407 0.35237071
-0.17970072 -0.54139423 0.34634101
-0.17479289 -0.53083885 0.34842595
0.14693357 -0.52563488 0.35020804
0.16167292 -0.52412522 0.34833074
-0.16476463 -0.51752806 0.35154766
-0.14792779 -0.50937343 0.34860119
-0.13232563 -0.50657094 0.34237909
-0.10931515 -0.50267464 0.34249717
0.13584855 -0.5098955 0.35386989
0.17229223 -0.51420236 0.35066956
-0.16702962 -0.49145627 0.3481701
-0.15018535 -0.49309921 0.34883514
-0.13443877 -0.49824405 0.34512842
-0.1081547 -0.49412072 0.34666905
-0.08921922 -0.49116847 0.3547622
-0.079033099 -0.49592847 0.35911274
0.068925507 -0.48013112 0.34075055
0.093720086 -0.48367891 0.34293473
0.108261 -0.48914826 0.34892237
0.12358733 -0.49722192 0.35217237
0.17236438 -0.49018568 0.35558584
0.15213346 -0.46638474 0.34611282
0.16334169 -0.47583127 0.35127899
0.15158246 -0.45191655 0.35056385
0.1601513 -0.44844148 0.35961458
0.14973548 -0.43005461 0.35041755
0.15258935 -0.41238055 0.35541853
0.15051168 -0.39563811 0.35285634
0.15044272 -0.37341243 0.3546277
0.15169358 -0.35387707 0.35605115
0.15059142 -0.33397073 0.35619229
0.14852989 -0.31060991 0.35528174
0.13787545 -0.28871387 0.34770522
0.14403945 -0.29459995 0.35198843
0.13673507 -0.27525446 0.34742033
0.14272748 -0.26872545 0.35187802
0.13899258 -0.24730618 0.34879521
0.14331621 -0.2515586 0.35317028
0.14369212 -0.23273373 0.35495234
0.13920198 -0.20618565 0.35185769
0.14269054 -0.21230984 0.3549037
0.13629057 -0.19136651 0.34947896
0.1443602 -0.18963118 0.35806924
0.13490427 -0.169861 0.34892029
0.14360845 -0.17442173 0.35716161
0.11742887 -0.14938326 0.34310991
0.13292632 -0.1569564 0.34660101
0.14493495 -0.14674725 0.35029277
0.14805914 -0.12851541 0.34750441
0.1369012 -0.10422774 0.34723675
0.1459112 -0.11183897 0.34950244
0.11299132 -0.09626168 0.35411966
0.12315325 -0.098376021 0.34583348
-0.22697565 -0.54254782 0.36607575
-0.21300088 -0.55282658 0.36908197
-0.18951878 -0.55235624 0.37032098
-0.17981255 -0.54113531 0.36685532
-0.17439206 -0.52832264 0.37012595
0.14915054 -0.52561855 0.36948538
0.16644584 -0.52111077 0.3701157
-0.1613854 -0.51654893 0.37182117
-0.14734167 -0.51161426 0.37114507
-0.12853615 -0.5074715 0.37144774
-0.10813022 -0.50637692 0.37026933
-0.089848347 -0.50408131 0.36856884
-0.070857868 -0.50347263 0.37366968
-0.056011051 -0.5010637 0.3718982
-0.034197371 -0.50128323 0.37546855
-0.019311277 -0.50059336 0.37868106
0.13837627 -0.50885522 0.36692786
0.1726737 -0.51185286 0.37176225
-0.12937814 -0.49449962 0.36290979
-0.10997833 -0.49314684 0.36011133
-0.067188047 -0.4897458 0.36233717
-0.046854787 -0.49187595 0.36760306
-0.030529901 -0.48956239 0.36670849
-0.013370539 -0.49300683 0.36811575
0.0068210275 -0.49187303 0.37178269
0.025589153 -0.48995543 0.37286377
0.047986608 -0.48837739 0.37126189
0.065986328 -0.48688334 0.3753705
0.11593984 -0.48771483 0.36780944
0.12898263 -0.49651593 0.37414229
0.17342487 -0.49205369 0.3740809
-0.028537516 -0.47448906 0.3694607
-0.006317392 -0.47868556 0.36866969
0.015314343 -0.47490638 0.36883676
0.030865224 -0.47998995 0.36854205
0.16837217 -0.47244164 0.36694503
0.16549256 -0.45162541 0.3699958
0.15911302 -0.43427038 0.36071497
0.16513018 -0.43060526 0.37371716
0.15813309 -0.41299045 0.36222103
0.16235773 -0.41059029 0.3719995
0.15910226 -0.39376262 0.36457589
0.16327378 -0.39161372 0.37539732
0.15779284 -0.3736949 0.36459994
0.16249426 -0.3716976 0.37609065
0.1590094 -0.35118562 0.36715665
0.16199742 -0.34902978 0.37535214
0.15745518 -0.3309544 0.36659789
0.16107576 -0.32531011 0.37757495
0.1568874 -0.30880708 0.36714405
0.16004163 -0.31506455 0.37170866
0.15562053 -0.29023978 0.36710247
0.15470061 -0.27023867 0.36802894
0.1541816 -0.2502237 0.36931792
0.15365326 -0.23010252 0.37018177
0.1530039 -0.20949367 0.3716054
0.15235268 -0.18770474 0.36987388
0.14984967 -0.16706704 0.36675102
0.15030622 -0.15049091 0.36837932
0.14969121 -0.12710103 0.36710972
-0.026670353 -0.10976808 0.37979603
0.13450672 -0.10342 0.36832279
0.14546256 -0.11189737 0.36937076
0.11229329 -0.097411595 0.36926019
0.12131822 -0.098425858 0.36579502
-0.22521131 -0.54447472 0.38943562
-0.21110974 -0.55326092 0.3909871
-0.18954626 -0.55134791 0.39212859
-0.17980576 -0.54181927 0.38679093
-0.17509384 -0.52850652 0.38945159
0.14694333 -0.5259617 0.38711074
0.16249396 -0.52351856 0.38958827
-0.166693 -0.51809049 0.39333332
-0.15159234 -0.51374561 0.38926831
-0.13131452 -0.51040077 0.39228389
-0.11025754 -0.5069133 0.39299771
-0.088588901 -0.50729102 0.3890768
-0.069255337 -0.50467479 0.3938694
-0.050081 -0.50242758 0.38836962
-0.026300594 -0.50181502 0.38735384
-0.011635094 -0.50021219 0.39059776
0.13812169 -0.51236564 0.38739458
0.17128828 -0.51462406 0.39221248
-0.047259599 -0.48982847 0.39755923
-0.031405389 -0.49097303 0.39844459
-0.0061829221 -0.49604464 0.39014548
0.0092889061 -0.4940573 0.39000976
0.027685449 -0.48895225 0.39643982
0.048573755 -0.49666029 0.38884872
0.068267211 -0.49229833 0.39125869
0.086256526 -0.48877665 0.38823736
0.10825583 -0.48941073 0.39023748
0.12529874 -0.4973807 0.39249393
0.1737228 -0.49433959 0.39275461
-0.04948055 -0.46611863 0.39837858
-0.030118648 -0.47053045 0.39903802
-0.011174148 -0.46546143 0.39899516
0.0082448199 -0.47139534 0.39803064
0.026019637 -0.46676123 0.3988142
0.17000709 -0.47014067 0.38651595
-0.048828699 -0.4505243 0.39849037
-0.030632768 -0.4495689 0.39879176
-0.0094919298 -0.44959551 0.39845315
0.0085250605 -0.4503642 0.39773941
0.032433771 -0.44979262 0.39945629
0.1682166 -0.45423383 0.38737482
-0.23104692 -0.42596048 0.39934453
-0.062474612 -0.4263978 0.39925414
-0.048069775 -0.43204167 0.39845318
-0.030247752 -0.42889538 0.39899957
-0.0086355228 -0.43291292 0.39829063
0.0071677221 -0.43010578 0.39777261
0.025523115 -0.42743349 0.39915991
0.062664762 -0.42191505 0.39990035
0.16575581 -0.43261588 0.38780102
-0.23417254 -0.41122812 0.39797828
-0.063109681 -0.40597141 0.39948022
-0.052091613 -0.4135718 0.39858055
-0.029945463 -0.40825528 0.39959782
-0.0076011606 -0.41312549 0.39889383
0.012400592 -0.40828261 0.39861679
0.029376494 -0.41451466 0.39979178
0.058120955 -0.40242383 0.39985377
0.06038652 -0.41217211 0.39990681
0.16287783 -0.41276109 0.38889056
-0.24054399 -0.38181192 0.39581117
-0.062372308 -0.38692591 0.39961323
-0.049370386 -0.39234918 0.39923573
-0.038330577 -0.39483875 0.39953741
-0.010897887 -0.39438525 0.39951488
0.0079006124 -0.38877365 0.39836326
0.028779898 -0.38772738 0.3995263
0.05475409 -0.38778901 0.39962596
0.064721338 -0.38538012 0.39961711
0.16166095 -0.39015418 0.39056748
-0.24312432 -0.36607882 0.39362431
-0.049026787 -0.37169236 0.39963886
-0.006793756 -0.37176538 0.39919144
0.013193926 -0.36692616 0.39892238
0.031385701 -0.37799877 0.39973217
0.050254591 -0.36827984 0.39937046
0.066381156 -0.36952341 0.39918154
0.15910199 -0.37450498 0.39735383
0.1620325 -0.37172839 0.3870942
-0.24412942 -0.34556308 0.39414129
-0.053583808 -0.35220644 0.3996549
-0.0093886042 -0.35353363 0.3995764
0.0096879965 -0.34616598 0.39920351
0.020081993 -0.34985569 0.39992669
0.055602133 -0.34641039 0.39967376
0.06688334 -0.34977359 0.39981496
0.1583813 -0.35240608 0.39823228
0.16155607 -0.35131252 0.38874054
-0.24348232 -0.3267436 0.39773369
-0.062020335 -0.33881074 0.39983708
-0.053199343 -0.33153319 0.39986554
-0.0059740799 -0.3303982 0.39937264
0.0088402992 -0.32995623 0.399073
0.054007381 -0.32620791 0.39966759
0.062957898 -0.3343409 0.39972365
0.158483 -0.33568916 0.39798415
0.16172531 -0.33217004 0.38631138
-0.24409448 -0.30725068 0.39781386
-0.058913082 -0.30718288 0.39996773
-0.0046537919 -0.30776569 0.39907584
0.0093499087 -0.30954239 0.39947236
0.059860609 -0.31964931 0.39974409
0.1595816 -0.30558771 0.39223546
0.16114002 -0.31183141 0.38519263
-0.005778173 -0.28917918 0.3994742
0.00686609 -0.28783974 0.3994841
0.15909208 -0.28853428 0.39179206
0.16059534 -0.28922746 0.38359249
-0.24697588 -0.26501635 0.39665717
-0.0047266055 -0.26834044 0.39956015
0.0052384716 -0.26593244 0.39956129
0.15878539 -0.27063558 0.38800499
-0.0043586581 -0.24767375 0.3998484
0.0017957316 -0.25132808 0.39969108
0.1569313 -0.24958125 0.3913382
-0.0039475416 -0.22698985 0.39993301
0.15579265 -0.22794816 0.39182177
-0.25015351 -0.20926884 0.39958674
-0.0120975 -0.20663887 0.39943767
0.0015043973 -0.20507813 0.39974335
0.15440722 -0.20911658 0.39426658
-0.25303054 -0.19443612 0.39704642
-0.022837309 -0.1903494 0.39906979
-0.006727485 -0.18597314 0.39850974
0.00025214592 -0.18991981 0.39915565
0.15509513 -0.18807691 0.38595498
-0.25405824 -0.17412686 0.39792329
-0.026361948 -0.17577803 0.39958611
-0.011079083 -0.16736415 0.39928949
0.0057358895 -0.17832787 0.39994082
0.1535192 -0.16778168 0.38720536
-0.25314662 -0.15202948 0.3938708
0.15157296 -0.14784552 0.38865191
-0.24543352 -0.13448793 0.39467767
-0.23050404 -0.13096267 0.39484525
-0.20997393 -0.12781954 0.39256543
-0.18964064 -0.12594731 0.39517707
-0.16850367 -0.1257665 0.39447129
-0.14947358 -0.12385001 0.38927957
-0.12727243 -0.12549251 0.39817029
-0.10800036 -0.12193054 0.39470661
-0.094982259 -0.12202352 0.39504963
-0.074333042 -0.12492192 0.39887488
-0.05994074 -0.12212742 0.39952627
-0.028551262 -0.12074635 0.39897391
0.14982221 -0.12772742 0.39000282
-0.12650645 -0.11928144 0.38860616
-0.093234271 -0.11762819 0.38722765
-0.073051028 -0.114571 0.38715273
-0.054026067 -0.11402591 0.3900013
-0.031548262 -0.11385018 0.39145538
-0.011058037 -0.11028863 0.38736501
0.0096972696 -0.1120049 0.39444169
0.029005377 -0.11057562 0.39489895
0.050867494 -0.10563541 0.38997549
0.067563184 -0.10587984 0.39325285
0.089981459 -0.10438947 0.39384869
0.10872948 -0.10547848 0.39692852
0.13310507 -0.10447424 0.38947725
0.14395289 -0.11161321 0.38842887
0.11316742 -0.099071912 0.38646621
0.12063603 -0.098448962 0.38119674
-0.2256209 -0.54336065 0.40900993
-0.21184306 -0.5534426 0.41030627
-0.18579793 -0.54823548 0.40943074
-0.22974943 -0.53074604 0.41015756
-0.17678428 -0.5267874 0.40873072
0.1506584 -0.52622503 0.40736529
0.16786596 -0.52102458 0.4131653
-0.22295436 -0.5145216 0.41641229
-0.21795774 -0.50064832 0.41816491
-0.17214128 -0.50566512 0.41134945
-0.14731184 -0.50533587 0.40577394
-0.13389301 -0.50332808 0.40641865
-0.10818709 -0.50255251 0.4007175
-0.098151311 -0.50203413 0.40231857
0.13228652 -0.50943166 0.40816972
0.17228384 -0.50895321 0.4116728
-0.20987606 -0.48833793 0.41630936
-0.18657067 -0.48617646 0.41743726
-0.17105585 -0.49071884 0.40910649
-0.15034652 -0.48918173 0.41015038
-0.12782221 -0.49054128 0.40840265
-0.10577989 -0.48760685 0.40340066
-0.091372333 -0.49117813 0.40409756
-0.069585755 -0.4900156 0.40322536
-0.058063857 -0.49231043 0.4012517
-0.020599332 -0.48322824 0.40041026
-0.013035432 -0.4813996 0.40038157
0.033966791 -0.48035473 0.40094206
0.0511618 -0.4864983 0.40108278
0.072987437 -0.48230255 0.40110302
0.09868969 -0.4854227 0.40444267
0.11289495 -0.48853076 0.41239834
0.17046523 -0.49029821 0.41259539
-0.20752104 -0.47250625 0.41290045
-0.18640576 -0.46606857 0.41216299
-0.17056803 -0.47238848 0.40832707
-0.14804207 -0.46694002 0.40817747
-0.13294262 -0.47170204 0.40741271
-0.112459 -0.46839967 0.40132481
-0.090130329 -0.46923012 0.40277445
-0.068805456 -0.46918243 0.40156519
0.047623102 -0.4719328 0.40166566
0.069016479 -0.46635288 0.40104729
0.090541713 -0.47300965 0.40381461
0.10773708 -0.4683648 0.40719315
0.13040781 -0.47157741 0.41205904
0.15093206 -0.47013807 0.41120911
0.16811208 -0.47547513 0.40343839
-0.226934 -0.44186008 0.4009802
-0.21138485 -0.45243439 0.40933561
-0.19033577 -0.44637081 0.41085559
-0.16888605 -0.45239991 0.40763333
-0.14860228 -0.44748145 0.40713865
-0.1258737 -0.4511036 0.40277955
-0.11046214 -0.44835871 0.40131944
-0.092018947 -0.45249051 0.40161723
-0.07341706 -0.45072308 0.40111634
0.053278647 -0.44993892 0.40051448
0.067840353 -0.44744903 0.40050101
0.090014353 -0.45142388 0.40249699
0.10661282 -0.44919178 0.40433764
0.1266253 -0.45296913 0.40535462
0.14484978 -0.45062321 0.40582442
0.16444045 -0.45420301 0.40106174
-0.22488946 -0.42634127 0.40379331
-0.20879352 -0.43225941 0.40961185
-0.19023806 -0.42678928 0.41086379
-0.17357862 -0.4329688 0.40828961
-0.15378039 -0.42815381 0.4073922
-0.13096075 -0.43281814 0.40404424
-0.11015096 -0.42771503 0.40187573
-0.087734818 -0.4325949 0.40196037
-0.072772913 -0.42894042 0.40082592
0.035018638 -0.438894 0.40002751
0.050347995 -0.43109018 0.40055305
0.072202154 -0.43335861 0.40057063
0.090442516 -0.43073291 0.40250129
0.11169145 -0.42874503 0.40420696
0.12889332 -0.43179521 0.40424341
0.15092131 -0.42817792 0.4039585
0.16101225 -0.43939796 0.40201569
-0.22575086 -0.41287345 0.40521917
-0.21109679 -0.411282 0.4120267
-0.19000286 -0.40836099 0.41116676
-0.16689317 -0.41114607 0.40740991
-0.14914334 -0.40813145 0.40652284
-0.13434744 -0.41821206 0.40451643
-0.10971089 -0.4070192 0.4018237
-0.091542564 -0.41359806 0.40235445
-0.074485376 -0.40706742 0.40130338
0.038068932 -0.40728915 0.40042672
0.046026081 -0.41051567 0.40049767
0.070303708 -0.40978354 0.40013522
0.088691108 -0.40953264 0.40231124
0.10935409 -0.40870976 0.40384635
0.12782206 -0.41143981 0.40346926
0.14997706 -0.40891325 0.40301058
-0.22799724 -0.3907823 0.40547329
-0.20876248 -0.39121091 0.41351596
-0.1923057 -0.38617092 0.41253042
-0.17109478 -0.39018732 0.40896782
-0.15086865 -0.38935471 0.40714908
-0.1283682 -0.38878188 0.40336949
-0.10772298 -0.38905898 0.4023934
-0.088865682 -0.39069372 0.40283751
-0.071987271 -0.38758701 0.40116805
-0.026712826 -0.38519344 0.40025306
-0.018528076 -0.39007428 0.40014258
0.035850871 -0.39752179 0.40014941
0.043300681 -0.39229035 0.40015385
0.076683164 -0.39282894 0.40094107
0.092408396 -0.38806424 0.40282041
0.11035307 -0.38991189 0.403045
0.13340124 -0.38947687 0.40267876
0.14784211 -0.38532043 0.40345669
-0.22897825 -0.36957341 0.40627724
-0.21083926 -0.37014201 0.41486147
-0.19034591 -0.36946914 0.41303721
-0.16682804 -0.37019384 0.41089827
-0.14871049 -0.36692056 0.40853029
-0.13100068 -0.37004825 0.40441322
-0.10940716 -0.36838818 0.40310794
-0.093364365 -0.37326357 0.40317392
-0.072162665 -0.36704588 0.40128547
-0.027788157 -0.36555591 0.40036938
-0.017071988 -0.37428457 0.4002232
0.033986777 -0.36709332 0.40022621
0.076029241 -0.3723824 0.40044773
0.087506808 -0.37141532 0.40197593
0.10772819 -0.3699542 0.40291601
0.13098906 -0.36845687 0.40309387
0.14696166 -0.36930478 0.40307829
-0.22795305 -0.35172412 0.40758872
-0.21048152 -0.34947959 0.41519842
-0.19411919 -0.35065022 0.41454893
-0.1725672 -0.35048831 0.41161633
-0.15106297 -0.3503682 0.40956262
-0.13241333 -0.35086697 0.40544638
-0.10690863 -0.35150337 0.40361595
-0.086523905 -0.34999713 0.40327677
-0.072404116 -0.34651148 0.40113628
-0.031093201 -0.3468053 0.40063167
-0.017729999 -0.3487159 0.40042621
0.030504398 -0.35250509 0.40054354
0.0455053 -0.34887162 0.40029407
0.074401334 -0.35219747 0.40072149
0.092032865 -0.34801856 0.4030953
0.11218046 -0.35173136 0.40318775
0.13050565 -0.34902406 0.40334198
0.14771695 -0.35343108 0.40299019
-0.22674413 -0.33239013 0.40973631
-0.20979637 -0.32874635 0.41577968
-0.18891907 -0.33078882 0.41234025
-0.16927592 -0.3299385 0.41174835
-0.14641321 -0.3303408 0.40863845
-0.12922746 -0.32946512 0.40415856
-0.11374344 -0.33196336 0.40295851
-0.091016576 -0.33048519 0.40298891
-0.074112974 -0.32737231 0.4013156
-0.043376002 -0.32918245 0.40053564
-0.028544668 -0.32905412 0.40124151
-0.012245342 -0.32679108 0.40008166
0.030962009 -0.33180225 0.40040869
0.042074319 -0.33426246 0.40036783
0.072992101 -0.33195716 0.40091962
0.087503403 -0.32852155 0.40298122
0.10784953 -0.33084017 0.40383944
0.12812939 -0.33002996 0.40352726
0.14811297 -0.32933345 0.40348369
-0.22887215 -0.31256473 0.40918392
-0.20928001 -0.3101508 0.41486412
-0.18931253 -0.3118414 0.41067186
-0.1717103 -0.30910614 0.41162199
-0.14927991 -0.31092665 0.41004872
-0.12746316 -0.30843288 0.40362716
-0.10923054 -0.30916256 0.40329623
-0.088790007 -0.31038818 0.40296927
-0.067847013 -0.31450605 0.40047294
-0.048726797 -0.30988601 0.40048337
-0.031456653 -0.3088983 0.40133673
-0.015712451 -0.31219667 0.40032637
0.031303208 -0.31114638 0.40082312
0.051586132 -0.30622643 0.40027997
0.073296249 -0.31131643 0.40150934
0.092773288 -0.30668351 0.4036507
0.11422545 -0.31074926 0.40321922
0.12994838 -0.30799091 0.40355885
0.15133308 -0.31204709 0.40237576
-0.24263224 -0.29077691 0.4016785
-0.22816965 -0.29183584 0.41068786
-0.2089799 -0.28731889 0.41418546
-0.19054754 -0.2920036 0.41053042
-0.16908489 -0.28891739 0.41173717
-0.14769158 -0.29298526 0.41095123
-0.13197695 -0.29002419 0.40533638
-0.11150029 -0.28915715 0.40427583
-0.088701181 -0.28812426 0.40380833
-0.06925749 -0.29119712 0.40122795
-0.045593061 -0.28823155 0.40204534
-0.029273992 -0.28638381 0.40253103
-0.015331329 -0.29152465 0.40055263
0.026755765 -0.29165661 0.40079379
0.0464039 -0.2868968 0.40044606
0.068849862 -0.29178581 0.40100312
0.088269934 -0.28717595 0.4034135
0.11049376 -0.29210421 0.40355277
0.13028324 -0.28733763 0.40400323
0.15032658 -0.29275703 0.40310103
-0.2429903 -0.27622816 0.4014692
-0.23245656 -0.27224079 0.40942892
-0.20996194 -0.26694301 0.41344103
-0.19210236 -0.27385351 0.41061807
-0.17088953 -0.26773867 0.41179815
-0.14978695 -0.27069375 0.40982363
-0.127878 -0.26900682 0.40534639
-0.10726021 -0.27102 0.40554923
-0.088541627 -0.26820335 0.40528911
-0.071258724 -0.27253184 0.40315664
-0.050262433 -0.27019984 0.40305814
-0.031562634 -0.26980564 0.4032622
-0.012958133 -0.27036458 0.40058067
0.017331876 -0.27332795 0.40026355
0.033340696 -0.26845324 0.40093309
0.048466176 -0.26838216 0.40038523
0.069200821 -0.27112606 0.40137154
0.089165017 -0.2689622 0.40390041
0.10918801 -0.27185225 0.40413868
0.12765194 -0.26912072 0.40456054
0.14923577 -0.27198282 0.40376636
-0.24174944 -0.2529251 0.40457937
-0.22766528 -0.25059605 0.41235769
-0.20851575 -0.24700132 0.41245323
-0.19004326 -0.25172293 0.41015583
-0.1709089 -0.24714237 0.41141057
-0.15175882 -0.25191054 0.40928853
-0.13305852 -0.24910274 0.40511805
-0.10989229 -0.25280333 0.40611011
-0.090440057 -0.24806845 0.40511411
-0.065394484 -0.24977756 0.40229231
-0.04851706 -0.25091213 0.40290761
-0.026911741 -0.25150239 0.40259552
-0.015073249 -0.25029749 0.40085283
0.012768723 -0.25384456 0.40030819
0.029443523 -0.25087619 0.40122566
0.048731577 -0.25031009 0.40056524
0.069501437 -0.25048667 0.4019779
0.09000396 -0.25077116 0.40465242
0.10794929 -0.25158164 0.40465313
0.13253741 -0.24875188 0.40534148
0.14871821 -0.25203288 0.40491372
-0.24398601 -0.23536687 0.40360221
-0.23348527 -0.23030305 0.40996104
-0.21111833 -0.2282012 0.41193348
-0.18951315 -0.23099086 0.40967885
-0.16872437 -0.22822501 0.41118655
-0.14591733 -0.23065493 0.40691602
-0.12771986 -0.22790484 0.40493089
-0.10943745 -0.2321015 0.40598798
-0.093154922 -0.23070693 0.40501532
-0.071089521 -0.23296258 0.40115625
-0.05143436 -0.2282303 0.40166041
-0.02787427 -0.23181716 0.40211415
-0.015817773 -0.23160438 0.40082413
0.013114129 -0.23318712 0.40070319
0.030946966 -0.22920725 0.40117073
0.053220823 -0.23207226 0.40066212
0.06975697 -0.22986537 0.40279666
0.090819202 -0.23172687 0.40537068
0.10643292 -0.2313745 0.40506101
0.12636121 -0.22655928 0.40507224
0.14483143 -0.23412782 0.40572175
-0.24492475 -0.21329728 0.40379921
-0.23105025 -0.21038282 0.41136026
-0.21421322 -0.20616286 0.41214272
-0.19089507 -0.20934789 0.40896219
-0.17220429 -0.20847794 0.41071936
-0.15196145 -0.21158744 0.40865195
-0.1275007 -0.21413767 0.4052467
-0.10699674 -0.21264437 0.40612382
-0.089815721 -0.20839974 0.40342292
-0.073201157 -0.21287517 0.40086448
-0.050908491 -0.20749989 0.40120333
-0.032372795 -0.21285336 0.40129432
-0.017409116 -0.21481502 0.40031525
0.011983686 -0.21287373 0.40073389
0.026924003 -0.21031709 0.40143988
0.048966724 -0.21115005 0.40095121
0.070021257 -0.20924065 0.40357456
0.089887418 -0.20966713 0.40590504
0.1119201 -0.20944864 0.4047049
0.13211256 -0.2061701 0.40577227
0.14666653 -0.21302788 0.40372127
-0.24483453 -0.19274279 0.40539843
-0.23193321 -0.18899161 0.41197392
-0.21002257 -0.18965515 0.41056216
-0.19033609 -0.19100489 0.40854594
-0.16764051 -0.18968582 0.40993619
-0.13194886 -0.18092915 0.40609905
-0.11248633 -0.18998079 0.4069593
-0.090306625 -0.18791735 0.40303165
-0.070321098 -0.19158874 0.40078306
-0.05058682 -0.1868519 0.40171009
-0.035164148 -0.19339156 0.40091315
0.01398522 -0.19180895 0.4009237
0.033766463 -0.18704346 0.40134779
0.053916149 -0.19075541 0.40143034
0.070818298 -0.18808828 0.40406317
0.086881489 -0.19365183 0.40596074
0.10725336 -0.19000708 0.40523887
0.12815136 -0.19011955 0.40568903
0.14784406 -0.19040528 0.40270835
-0.246382 -0.17080307 0.40509677
-0.2287585 -0.17026573 0.41297105
-0.20651482 -0.17330143 0.40866214
-0.19298255 -0.17002957 0.40861133
-0.17214897 -0.17018038 0.40972313
-0.15106535 -0.1701487 0.40728697
-0.12928127 -0.16999695 0.40628004
-0.1098875 -0.16856097 0.40746209
-0.0886591 -0.16625698 0.40336952
-0.069931641 -0.17091346 0.4009698
-0.04877824 -0.17098264 0.40195504
-0.034834437 -0.1710134 0.40105438
0.010663681 -0.17030665 0.40087509
0.029105518 -0.16759963 0.40185452
0.051333696 -0.17281002 0.40205047
0.068761341 -0.16943036 0.40447816
0.092567749 -0.17299524 0.40602523
0.11396366 -0.16838734 0.40513325
0.13265799 -0.17188697 0.40606126
0.14762148 -0.16845964 0.40234143
-0.24635167 -0.15038854 0.40305486
-0.22998947 -0.14813629 0.40993491
-0.20916702 -0.15144625 0.40934345
-0.18776271 -0.14821184 0.40951714
-0.16552411 -0.15209262 0.40923476
-0.14993267 -0.14925462 0.40633309
-0.13312802 -0.15065163 0.40562281
-0.11414891 -0.15197542 0.40762982
-0.090870403 -0.14864311 0.40446076
-0.069556743 -0.15024406 0.40122533
-0.047572449 -0.15184829 0.40279979
-0.027504899 -0.15039021 0.4016332
-0.0079434877 -0.14668208 0.40132591
0.0095424764 -0.15174925 0.40214434
0.026468717 -0.1493848 0.40243763
0.047305416 -0.15292168 0.40225765
0.068684272 -0.14683697 0.40547872
0.087858148 -0.15357092 0.40676111
0.10879253 -0.14847574 0.40569896
0.12837993 -0.1509745 0.40646362
0.14595616 -0.14801994 0.40414357
-0.23115742 -0.13901523 0.40577954
-0.20907685 -0.13666254 0.40530646
-0.19010906 -0.13347095 0.40465245
-0.17040142 -0.13466598 0.40590498
-0.14914373 -0.13299102 0.40340284
-0.12671091 -0.13325438 0.40357119
-0.10873925 -0.12982844 0.40382153
-0.088049613 -0.13163027 0.40350991
-0.07188376 -0.13294312 0.40139338
-0.051729042 -0.1332425 0.40352818
-0.032366291 -0.13102727 0.40308577
-0.012128036 -0.12993164 0.40166402
0.0095942998 -0.13121031 0.40392494
0.031342626 -0.12902065 0.4032732
0.050299831 -0.13269311 0.4038069
0.071083374 -0.1267397 0.40666211
0.093171239 -0.13171551 0.4072271
0.11197855 -0.12817442 0.40647775
0.13327223 -0.13060287 0.40721235
0.14380853 -0.13140413 0.40477049
-0.0081205908 -0.11994508 0.40086457
0.0018454957 -0.11753668 0.40086067
0.036632165 -0.11948533 0.40263247
0.048552558 -0.11661106 0.40281409
0.07130672 -0.11109202 0.40221405
0.090484142 -0.11531082 0.40564227
0.11029675 -0.11203744 0.40434772
0.13000213 -0.11171316 0.40432176
0.14063781 -0.11500574 0.40453279
-0.22384131 -0.54535985 0.43068179
-0.21400136 -0.55287594 0.4280158
-0.19249594 -0.55355608 0.42978194
-0.17971608 -0.54342383 0.42938635
-0.22794579 -0.5271886 0.42931694
-0.17806885 -0.52954572 0.42873836
0.1470059 -0.52677679 0.42734137
0.16587622 -0.52264494 0.4314113
-0.2167736 -0.51027334 0.43234417
-0.18114685 -0.50250304 0.43142641
-0.17753237 -0.51193124 0.43165612
0.13508999 -0.5109973 0.42706987
0.17129882 -0.5091753 0.43405733
-0.20453921 -0.49297649 0.42521176
-0.1892395 -0.49219245 0.42888486
0.12793893 -0.49067092 0.42804739
0.14889884 -0.48344183 0.43219557
0.16730653 -0.49193907 0.43331638
0.13398184 -0.47988927 0.42318484
-0.22548929 -0.54456538 0.44935995
-0.21078935 -0.55458045 0.45146379
-0.18532893 -0.54928702 0.44807824
-0.17988005 -0.54378915 0.44354835
-0.22728899 -0.5287137 0.45091495
-0.17709795 -0.52708334 0.44963345
0.13943936 -0.52123636 0.4413183
0.14995109 -0.52751321 0.44916269
0.16636968 -0.52303219 0.45057124
-0.22036174 -0.51929355 0.4473269
-0.20882635 -0.50677025 0.4467392
-0.18636495 -0.5033173 0.45276341
-0.17660517 -0.51240885 0.45205662
0.13773711 -0.51272613 0.44510183
0.17044482 -0.50855726 0.45307484
-0.19286363 -0.4991219 0.44462055
0.1342086 -0.4927316 0.44665545
0.14869313 -0.48675197 0.45135888
0.16368848 -0.49140501 0.4524276
-0.2252253 -0.54535258 0.46971127
-0.21392296 -0.55462444 0.47172332
-0.19004236 -0.55229592 0.46802199
-0.17951763 -0.54371846 0.47440499
-0.22668527 -0.52902275 0.46988222
-0.17650121 -0.53064853 0.46856233
0.14826283 -0.52863413 0.46819919
0.16627516 -0.52370381 0.47243685
-0.21244779 -0.51157737 0.46869382
-0.19151381 -0.50565284 0.46999246
-0.1756303 -0.51257777 0.47296748
0.13918942 -0.5138346 0.46754363
0.17049305 -0.50563949 0.47144505
0.1351801 -0.49251327 0.46798491
0.14924175 -0.48867026 0.47080094
0.16482554 -0.49442324 0.47634539
-0.22383024 -0.54655486 0.4893792
-0.20972775 -0.5569706 0.49251586
-0.1839675 -0.54864907 0.48793709
-0.22457789 -0.52979016 0.49169609
-0.17513515 -0.5285303 0.49099427
0.14587386 -0.53013468 0.48804513
0.16456001 -0.52553964 0.49268913
-0.21065211 -0.51250225 0.48689362
-0.19204955 -0.50804698 0.49121571
-0.17696761 -0.51293492 0.49125695
0.13614531 -0.50956368 0.48842895
0.17041992 -0.5082624 0.48745883
0.13332851 -0.49663365 0.48828992
0.14699733 -0.49090645 0.49167576
0.16211802 -0.49531704 0.49450147
-0.20487368 -0.56130719 0.5136888
-0.22425312 -0.54653227 0.51084793
-0.21638656 -0.55502009 0.51184875
-0.18678832 -0.55158985 0.50809383
-0.22440438 -0.53132242 0.50989908
-0.2152869 -0.52292585 0.51305807
-0.18318744 -0.52177536 0.51653719
-0.17813274 -0.53234732 0.51101911
0.13908818 -0.52039683 0.50799215
0.14872754 -0.53115666 0.50911343
0.16754197 -0.52499294 0.51362664
-0.20652644 -0.51583743 0.50526255
-0.18741888 -0.51532269 0.5101651
0.13453351 -0.50606585 0.50825387
0.17062055 -0.50659132 0.50770825
0.13793179 -0.49291697 0.51009905
0.15356995 -0.49504977 0.51425523
0.16010086 -0.49691153 0.50932455
-0.20406167 -0.56207025 0.53260177
-0.19706626 -0.5618031 0.52555829
-0.22342864 -0.54754764 0.53145152
-0.21399336 -0.55656368 0.53438848
-0.18334541 -0.55003631 0.52900165
-0.22566654 -0.53645533 0.53129506
-0.21139778 -0.52404362 0.53203672
-0.18678491 -0.52423596 0.53197718
-0.17879012 -0.53626055 0.53161597
0.13836829 -0.52137303 0.53131425
0.14549574 -0.53254539 0.52882582
0.16595319 -0.52709907 0.53362566
-0.20599134 -0.51984417 0.5221296
-0.19574217 -0.51951879 0.52432859
0.1346796 -0.50783366 0.53075427
0.17032564 -0.50969267 0.52598411
0.13464683 -0.49808455 0.52947676
0.14928992 -0.49622762 0.53273773
-0.20232272 -0.56230581 0.54910296
-0.19398217 -0.5617646 0.54844052
-0.223443 -0.54775 0.55194706
-0.21521869 -0.55611908 0.55312914
-0.18331204 -0.55403584 0.54965258
-0.22226545 -0.535155 0.55327445
-0.20750666 -0.52474654 0.54874349
-0.18945122 -0.5254674 0.54977125
-0.17853606 -0.5368036 0.55384886
0.13883908 -0.52698457 0.54813439
0.15402897 -0.53476304 0.55095959
0.16803579 -0.52658844 0.55042064
0.13468948 -0.50743014 0.54902399
0.16748002 -0.50698894 0.54592812
0.13923635 -0.49900165 0.55601531
0.14827888 -0.49853441 0.55071247
-0.19342722 -0.56178588 0.56926101
-0.22225229 -0.54648185 0.57111406
-0.21319471 -0.55628324 0.57287794
-0.18441585 -0.55952162 0.56632745
-0.1790788 -0.54820454 0.57135636
-0.2209096 -0.53748327 0.57053924
-0.2094654 -0.5269177 0.56694895
-0.18825473 -0.52820045 0.57030672
-0.17798296 -0.53747898 0.57271433
0.13894059 -0.52767372 0.56888586
0.15005182 -0.53706634 0.57043576
0.16701178 -0.5290888 0.56958234
0.13589028 -0.50536484 0.57150882
0.15013695 -0.50201714 0.57242769
0.16666707 -0.50877649 0.56509298
-0.20198816 -0.56054914 0.59129959
-0.19069967 -0.56140375 0.58746296
-0.22293988 -0.54903936 0.59297502
-0.21421447 -0.55801684 0.59234548
-0.17815183 -0.5546034 0.59055632
-0.21510938 -0.53364015 0.58876324
-0.19196869 -0.52912796 0.59200805
-0.17736867 -0.53871691 0.59325445
0.13772564 -0.52820957 0.5903185
0.15075752 -0.53798449 0.59102249
0.16873446 -0.52736855 0.58622158
0.13258144 -0.510822 0.58949673
0.14751644 -0.50380778 0.59326088
0.16669916 -0.5117932 0.58638322
-0.20527676 -0.56101167 0.60595012
-0.19027658 -0.56275946 0.61000407
-0.22176193 -0.54860604 0.61480331
-0.21617976 -0.55771452 0.60992461
-0.17339598 -0.55324769 0.61274606
-0.047999717 -0.54884171 0.61916709
-0.027884059 -0.54397458 0.61831784
-0.012975266 -0.54035461 0.61847895
0.018711461 -0.54147816 0.61916929
0.024792869 -0.54155517 0.61945295
0.15164672 -0.54127616 0.61363351
-0.21073297 -0.53386581 0.60711753
-0.1871061 -0.53112411 0.61235732
-0.17321722 -0.53773868 0.61375761
-0.0042625228 -0.53312075 0.61901838
0.010328667 -0.53051996 0.61857653
0.031830698 -0.52953351 0.61865896
0.054278493 -0.52632737 0.61699378
0.070144191 -0.52800536 0.61894101
0.088638581 -0.52614504 0.61997306
0.10731049 -0.52158928 0.61869669
0.13604514 -0.52779335 0.61031973
0.157681 -0.53917903 0.6077739
0.16705655 -0.53261369 0.61032194
0.034506436 -0.51859796 0.6188013
0.050411277 -0.51443142 0.61865872
0.071992248 -0.51294065 0.61791801
0.093873464 -0.51496041 0.61680049
0.11197633 -0.51159644 0.61817366
0.13201098 -0.51182246 0.60907346
0.15367813 -0.50727338 0.60965651
0.16761246 -0.51439518 0.60879457
-0.20651087 -0.56238705 0.62779653
-0.19326092 -0.56424612 0.62770885
-0.17614022 -0.56348413 0.63413638
-0.091269985 -0.56187618 0.63515651
-0.075747713 -0.56185943 0.63844627
-0.048689798 -0.56201625 0.6339069
-0.028186515 -0.56242228 0.63821566
-0.012892856 -0.56164789 0.63958532
-0.22271834 -0.55029708 0.63110292
-0.21672297 -0.55925715 0.63444924
-0.16503195 -0.54788131 0.62770092
-0.15913936 -0.55018729 0.63203728
-0.090639032 -0.54952163 0.62920773
-0.070282243 -0.55039728 0.62610132
-0.050223641 -0.55106914 0.62343574
-0.02586982 -0.55462444 0.62490493
-0.0062851761 -0.55393726 0.62687647
0.012918386 -0.55415404 0.62985021
0.034570422 -0.54931009 0.62677443
0.053939354 -0.54748064 0.63028502
0.068462253 -0.54440868 0.63458669
0.14766467 -0.5426479 0.63100004
0.16252443 -0.54114687 0.63427639
-0.21265884 -0.53665632 0.62720519
-0.19134626 -0.53246915 0.63185978
-0.17139988 -0.53594393 0.63204026
-0.081741147 -0.53710145 0.6393441
-0.069160305 -0.53209877 0.63172424
-0.051360294 -0.52996564 0.62898183
-0.030479198 -0.52819151 0.6268279
-0.014040515 -0.52407825 0.62748015
0.05358649 -0.53464353 0.62079173
0.078232944 -0.5339334 0.62729526
0.093865074 -0.52989596 0.62845701
0.11282021 -0.5270251 0.63008446
0.13332602 -0.52950001 0.62806195
0.16908388 -0.53028959 0.6262024
-0.0043918262 -0.51821411 0.63678181
0.011041531 -0.51482314 0.63295454
0.03196514 -0.51090872 0.63109463
0.049801521 -0.50636864 0.63132465
0.068472415 -0.50582051 0.62592381
0.086308464 -0.50646973 0.63037097
0.11042418 -0.50870085 0.63221264
0.12781318 -0.50850195 0.62869114
0.15205429 -0.50924581 0.627608
0.16974905 -0.51642954 0.62937391
-0.20989981 -0.56315267 0.64948285
-0.18776295 -0.56719148 0.65016317
-0.16774794 -0.56227207 0.64969516
-0.092933953 -0.56241214 0.64501613
-0.068523318 -0.56186408 0.6433956
-0.051172532 -0.56199813 0.64611256
-0.035854928 -0.5608331 0.64698505
-0.010251014 -0.56170291 0.64392346
-0.22305603 -0.55117702 0.65431499
-0.21855667 -0.5435797 0.64566052
-0.16605555 -0.55292386 0.65664619
-0.15492295 -0.55204231 0.64890873
-0.10058867 -0.55214339 0.64497846
-0.086112782 -0.55267942 0.64866585
-0.067634657 -0.55085135 0.65088558
-0.049259111 -0.54664272 0.65417004
-0.031078421 -0.55453092 0.65408838
-0.012716498 -0.55476344 0.65459067
0.0076931743 -0.55259347 0.65290439
0.029501405 -0.54979777 0.65030146
0.048783328 -0.54647368 0.64889187
0.070084214 -0.54196811 0.64564157
0.15080234 -0.54513854 0.65196741
-0.20625706 -0.53688735 0.6494385
-0.19166122 -0.53617376 0.65096611
-0.17083904 -0.53701723 0.64778244
-0.068252869 -0.53267294 0.64481753
-0.048307016 -0.53024995 0.65393114
-0.033418231 -0.52000743 0.64073724
0.048429709 -0.53715909 0.65770382
0.068035781 -0.53427756 0.65648866
0.088480175 -0.53280866 0.65007806
0.10855302 -0.52812827 0.64960194
0.13242197 -0.53145325 0.64837354
0.16902624 -0.53422964 0.64699376
-0.029019177 -0.51678073 0.64878392
-0.010959158 -0.51381898 0.65115362
0.0094276946 -0.51043814 0.65063286
0.029782347 -0.50692421 0.65011656
0.049666233 -0.5061388 0.64889991
0.073536567 -0.50776416 0.65008157
0.091031842 -0.51032794 0.6515168
0.10759096 -0.51363683 0.65063834
0.12629476 -0.51380104 0.64945757
0.14801386 -0.5129987 0.65070796
0.16675282 -0.51681995 0.64751196
-0.21069685 -0.56363124 0.66803324
-0.19372736 -0.56718647 0.66839021
-0.17622408 -0.5621202 0.6735574
-0.22235036 -0.5515396 0.66876024
-0.21476129 -0.54121029 0.67231208
-0.18373716 -0.54032046 0.67383146
-0.17432423 -0.54616773 0.67148131
-0.024233213 -0.54550683 0.66178787
-0.010132542 -0.54266071 0.67071718
0.010651674 -0.54118669 0.66877645
0.1475535 -0.54580033 0.67173839
0.16573094 -0.54103082 0.66573936
-0.20698246 -0.53946137 0.66727102
-0.19404718 -0.53918314 0.6717447
-0.1756233 -0.53991711 0.66019803
-0.046355546 -0.52927721 0.66047215
-0.032847602 -0.5295189 0.66602665
-0.014042797 -0.52690083 0.67309803
0.010098459 -0.52818203 0.67319155
0.032507747 -0.53696448 0.66863877
0.051760845 -0.53358233 0.67300701
0.074816942 -0.52986383 0.66820145
0.093663625 -0.52621734 0.66973096
0.11087668 -0.52247286 0.66741419
0.13240696 -0.52824223 0.66746783
0.14010021 -0.53622794 0.6761077
0.17006129 -0.53137553 0.67070812
-0.027958063 -0.51983649 0.6624245
-0.009669302 -0.51887226 0.6663813
0.0071894652 -0.5161038 0.66599733
0.027362736 -0.51383239 0.66715026
0.048434075 -0.51284766 0.67099935
0.067329399 -0.51203763 0.67075169
0.091141753 -0.51363564 0.67177284
0.11215203 -0.51744878 0.67179418
0.1311124 -0.51827705 0.66917151
0.15106109 -0.51582569 0.67333698
0.16419624 -0.51845229 0.6656369
-0.20984298 -0.56547022 0.68739736
-0.18651494 -0.56835157 0.69135988
-0.17199199 -0.56291032 0.69134986
-0.22127935 -0.55181682 0.6854105
-0.21247429 -0.54398143 0.68794632
-0.18929401 -0.54185128 0.69303918
-0.16949444 -0.55167264 0.68845809
-0.009778169 -0.54273415 0.69191408
0.0087710628 -0.54401588 0.69070333
0.028407956 -0.54320884 0.69291788
0.048249237 -0.5425024 0.69714439
0.14950244 -0.5477981 0.69352192
0.16547363 -0.5418734 0.68854004
-0.00737557 -0.531021 0.69206667
0.012527685 -0.52305686 0.68782204
0.027477806 -0.53022063 0.68353736
0.04918937 -0.53810495 0.68688697
0.069544077 -0.53475726 0.68590581
0.089724824 -0.5339548 0.69127536
0.10908952 -0.52862072 0.68865353
0.13355801 -0.5283674 0.69206351
0.14016144 -0.53646922 0.68355608
0.16789258 -0.52785879 0.68784046
0.034843642 -0.51850659 0.69293892
0.053884197 -0.51585907 0.69036049
0.069956191 -0.5144394 0.68875778
0.09005098 -0.51454043 0.69300598
0.10696409 -0.51620799 0.68665648
0.12472213 -0.51934654 0.69014794
0.1492956 -0.51723331 0.68993914
-0.21176969 -0.56642884 0.70492852
-0.18854629 -0.5741713 0.71188891
-0.1686046 -0.56974763 0.71134681
-0.21049184 -0.54758525 0.70857376
-0.18650933 -0.54549724 0.71280712
-0.16889523 -0.54773682 0.70608896
-0.15672734 -0.55565262 0.70901489
-0.0039287289 -0.54264277 0.70857978
0.0085420795 -0.55002403 0.71082222
0.026744541 -0.55063862 0.70727938
0.048741758 -0.5470919 0.7132687
0.069390379 -0.54185903 0.70783281
0.083264716 -0.54135913 0.71524972
0.14840531 -0.55011874 0.71258104
0.16796736 -0.54215801 0.70885801
-0.006412325 -0.53106213 0.70867229
0.009201169 -0.52723145 0.71070266
0.090460315 -0.53300822 0.71031845
0.11063637 -0.53218448 0.70920676
0.13008377 -0.52961361 0.71068084
0.15872797 -0.52266651 0.71198821
0.16687289 -0.52703846 0.70901436
0.028816741 -0.51768523 0.71053857
0.049573638 -0.51583576 0.70996517
0.067461289 -0.51515436 0.70868391
0.09083759 -0.51788181 0.71237671
0.10849439 -0.51718867 0.70694429
0.12347469 -0.51944995 0.7047953
0.14758697 -0.51887602 0.70653313
-0.21117219 -0.56899828 0.72849405
-0.1886919 -0.57430112 0.72945148
