# .PCD v0.7 - Point Cloud Data file format
VERSION 0.7
FIELDS x y z
SIZE 4 4 4
TYPE F F F
COUNT 1 1 1
WIDTH 1394
HEIGHT 1
VIEWPOINT 0 0 0 1 0 0 0
POINTS 1394
DATA ascii
0.20867784 -0.20887519 0.021137698
-0.20947486 -0.19723463 0.020930953
-0.19210529 -0.19588064 0.022104101
0.19210206 -0.19741504 0.018079737
0.20013022 -0.19825757 0.017399788
0.19337487 0.17297602 0.019937448
0.20519787 0.1735937 0.022211138
-0.20630071 0.18837582 0.021260198
-0.18801597 0.1863039 0.021645386
-0.17355525 0.18946894 0.023118749
0.18829964 0.18951879 0.020513933
0.21350479 0.18573846 0.019785123
-0.2053566 0.2059717 0.021544725
-0.18958272 0.2044885 0.020693626
0.1867207 0.20313054 0.01790157
0.20541857 0.20122896 0.022724822
-0.21011755 -0.22683287 0.042943001
0.19177854 -0.22656003 0.039296884
0.20392527 -0.22693242 0.03716518
-0.20860545 -0.21092092 0.037489139
-0.18575725 -0.21417004 0.038653597
0.17194259 -0.21409473 0.037746903
0.18729937 -0.21237446 0.038114022
0.20803341 -0.21151575 0.039852541
-0.20660032 -0.19495562 0.038283646
-0.19084442 -0.19521211 0.038615901
0.17466164 -0.19670343 0.039070368
0.19126187 -0.1982765 0.040461596
0.20338891 -0.19853085 0.040515836
-0.20822547 0.17441472 0.047098577
-0.19311889 0.17422986 0.044603486
0.19307208 0.17294177 0.042108856
0.20730737 0.17277429 0.039083932
-0.20682077 0.18899244 0.037093617
-0.18930224 0.18509313 0.038643759
-0.17263228 0.18974009 0.040182441
0.17288171 0.18453677 0.038600188
0.19096579 0.18917948 0.037855484
0.211399 0.18908738 0.03980501
-0.20598854 0.20314671 0.038279328
-0.18803036 0.20330383 0.03864276
0.18977113 0.20151991 0.038176872
0.20519321 0.20047761 0.03511842
-0.21031743 -0.22532457 0.055570781
0.19164389 -0.22651541 0.060001079
0.20345461 -0.22680807 0.058070313
-0.20885724 -0.21087912 0.061668683
-0.18563189 -0.21262239 0.061584752
-0.17435992 -0.20592491 0.06306199
0.17028634 -0.21229768 0.061290171
0.18799271 -0.21327731 0.062939741
0.20702597 -0.21258824 0.062495355
-0.20631017 -0.19398956 0.063137613
-0.18891124 -0.19317348 0.062877022
-0.17415297 -0.19889513 0.062750675
0.17281878 -0.19521546 0.066224359
0.19061908 -0.19645204 0.063266106
0.20367378 -0.19734217 0.064835072
-0.20475978 0.17419089 0.065681458
-0.18741126 0.17356393 0.064554252
-0.17240979 0.17253011 0.072414339
0.17220223 0.17144138 0.071230173
0.19340312 0.17155819 0.062144827
0.2075865 0.17157941 0.063209943
-0.20635398 0.18786798 0.061807845
-0.18822742 0.18747614 0.062362138
-0.17233154 0.18792799 0.062682062
0.17294301 0.18792836 0.069309726
0.19065963 0.18911736 0.062540732
0.20952046 0.18818228 0.062428366
-0.20636773 0.20237769 0.062054388
-0.18844882 0.20177738 0.061496351
0.18988502 0.20138706 0.056487162
0.18294483 -0.2269581 0.088841796
0.20402701 -0.22502196 0.075766683
-0.20854622 -0.20915559 0.086443946
-0.18749326 -0.21161534 0.087667815
-0.17420198 -0.20429674 0.088522427
0.1699308 -0.21208338 0.08707276
0.1875765 -0.21360733 0.087440223
0.20583062 -0.21144772 0.088030025
-0.2073212 -0.19261201 0.087388106
-0.18811776 -0.19141515 0.087602071
-0.17433777 -0.19596961 0.092946716
0.16978174 -0.1958068 0.093260899
0.18865401 -0.19464402 0.088072076
0.204514 -0.19671243 0.088020869
-0.2063617 0.17266822 0.086641215
-0.18819405 0.17252973 0.087006517
-0.17168382 0.1737247 0.092686482
0.17410161 0.17078969 0.0925318
0.19185023 0.16963196 0.088620789
0.2076519 0.1698636 0.087314926
-0.20695239 0.18738748 0.086423598
-0.1893259 0.19034666 0.087276198
-0.17158313 0.18708642 0.088168994
0.17099139 0.18349212 0.087602556
0.18977255 0.18780486 0.08733388
0.20822175 0.18705598 0.086816117
-0.20555662 0.20145823 0.087857589
-0.1879648 0.20119166 0.084653772
0.18001738 0.20056124 0.07671237
-0.20699748 -0.20826679 0.11172582
-0.18638794 -0.21070418 0.11262275
-0.17336529 -0.20389602 0.11402897
0.16914149 -0.21032006 0.11341593
0.18730155 -0.21274497 0.11293948
0.20481458 -0.21055643 0.11236002
-0.20752044 -0.19240852 0.11318071
-0.18805666 -0.18948588 0.11253714
-0.17299891 -0.19512071 0.11563227
0.17052481 -0.19476332 0.11281834
0.1887372 -0.19307844 0.1124918
0.20394361 -0.19538757 0.11308861
-0.20574248 0.17137785 0.1149273
-0.18746415 0.17114204 0.11190613
-0.17248979 0.17177559 0.11481714
0.1705035 0.17053376 0.11400849
0.19017163 0.16890025 0.11413002
0.20773523 0.16863616 0.11326648
-0.20598544 0.18620531 0.11145722
-0.18850213 0.18968889 0.11156179
-0.17026344 0.18507494 0.11233072
0.17271075 0.18256275 0.11157586
0.19009292 0.18728575 0.1121002
0.20762181 0.18452954 0.11168357
-0.20165038 0.20039821 0.11590576
-0.19329548 0.20112211 0.11275627
-0.20688954 -0.20641018 0.1365377
-0.18829162 -0.20900778 0.13729839
-0.17307518 -0.20397535 0.13953255
0.16835921 -0.20858958 0.13912125
0.18754058 -0.2113689 0.13823675
0.20381883 -0.20861578 0.13800201
-0.20586753 -0.18947564 0.1369793
-0.18683612 -0.18715598 0.13772365
-0.17268164 -0.19305898 0.13815735
0.16876321 -0.19325633 0.13821627
0.18869998 -0.19092859 0.13782258
0.2040211 -0.19427429 0.13790676
-0.20603335 0.17169446 0.13694982
-0.188053 0.16911955 0.13765013
-0.17114075 0.17050816 0.13823172
0.17174911 0.16698577 0.13749
0.18998949 0.16682747 0.13742225
0.20703633 0.16738078 0.1379804
-0.20486602 0.18493472 0.13589305
-0.18866844 0.1888697 0.13727845
-0.16957437 0.18423168 0.13697334
0.1714153 0.18138531 0.1387026
0.18953416 0.18532225 0.13763984
0.20615812 0.18324879 0.13777815
-0.20794514 -0.20504662 0.15961348
-0.18803057 -0.2065116 0.16240515
-0.17300287 -0.20331717 0.16228117
0.16852327 -0.20789877 0.16372004
0.18746288 -0.2100365 0.16194119
0.20352644 -0.20785965 0.16254196
-0.20641963 -0.18990695 0.16305284
-0.18830234 -0.18544149 0.16248456
-0.17154558 -0.19095311 0.16295305
0.16922954 -0.19168688 0.16510504
0.18821354 -0.18930502 0.1625282
0.20308375 -0.1941627 0.16470437
-0.20554951 0.17034826 0.16447863
-0.18744133 0.16682902 0.16189328
-0.16927752 0.17085224 0.16241485
0.17020531 0.17133474 0.16269954
0.18786155 0.16489778 0.16282699
0.20684868 0.16613577 0.16233797
-0.20466417 0.18424979 0.16252941
-0.18742712 0.18619443 0.16271971
-0.16946886 0.18379742 0.16219206
0.1696973 0.18109621 0.16112298
0.18895575 0.18362485 0.16215111
0.20582522 0.18082082 0.16246822
-0.2052272 -0.20419389 0.18474284
-0.18854517 -0.20483589 0.18713808
-0.17221469 -0.20255399 0.18802238
0.16969565 -0.20753534 0.18843862
0.187222 -0.20798387 0.18715797
0.20247564 -0.20506455 0.18586339
-0.20651349 -0.18977457 0.18679652
-0.18739083 -0.18374801 0.18829419
-0.17093976 -0.18908559 0.18723537
0.16908753 -0.19050357 0.1878709
0.18776226 -0.18715332 0.18774889
0.20282403 -0.19276385 0.18560873
-0.1930473 -0.17389816 0.18949866
-0.20459913 0.16951722 0.18950659
-0.18808137 0.16551979 0.18701662
-0.16918302 0.1682252 0.18816958
0.16834174 0.16861579 0.18584615
0.18802297 0.16344278 0.18794057
0.20584849 0.16482906 0.18786666
-0.20413703 0.18388431 0.1887545
-0.18752597 0.18508035 0.18646654
-0.16849333 0.18227215 0.18766022
0.17010094 0.179498 0.18815123
0.18898518 0.18172465 0.18698999
0.20441118 0.17978413 0.1878155
-0.20405474 -0.20249841 0.20829229
-0.18764198 -0.20267868 0.21307747
-0.17161676 -0.20137005 0.21269533
0.16915838 -0.20684277 0.21152225
0.18786728 -0.20619056 0.21150303
0.2017547 -0.20262529 0.2107175
-0.20555484 -0.18744044 0.21200109
-0.18907745 -0.18517837 0.2119825
-0.17002232 -0.18751496 0.21282773
0.16872576 -0.18925472 0.21284188
0.18786979 -0.1860688 0.21268086
0.20239852 -0.19163689 0.21088497
-0.20295984 -0.17253774 0.2111367
-0.1854105 -0.17328595 0.21511725
-0.1735521 -0.17413783 0.21823482
0.17385456 0.14993513 0.22144076
0.18335189 0.14986253 0.21689215
-0.20425925 0.16693275 0.21176563
-0.18803814 0.164612 0.21203403
-0.16760531 0.16660567 0.21274549
0.16940556 0.16702944 0.21023101
0.18860911 0.16255313 0.21248011
0.20576011 0.16434543 0.21226661
-0.20415919 0.17946973 0.20739968
-0.18707763 0.18307483 0.21255925
-0.16826655 0.18148409 0.21256341
0.17164153 0.17898336 0.21362101
0.18874708 0.17967524 0.2127119
0.20337725 0.17790619 0.21011846
-0.20638484 -0.2005775 0.24340802
-0.18853955 -0.20174167 0.23637505
-0.17279582 -0.20073876 0.23978934
0.16749914 -0.2038541 0.23697655
0.18834136 -0.2043073 0.23714116
0.20071787 -0.20601308 0.22676736
-0.20467012 -0.18781352 0.23694454
-0.18938944 -0.1875429 0.2376903
-0.16876189 -0.18784322 0.23800643
0.16724925 -0.18778192 0.23863399
0.1878394 -0.1841905 0.23748855
0.20199229 -0.19178781 0.23611616
-0.2040461 -0.17302307 0.23779245
-0.18575674 -0.17199636 0.23715039
-0.17188801 -0.17361365 0.24022844
0.1677742 -0.17466509 0.24329382
0.18560809 -0.17378311 0.24177195
0.1736867 0.14862144 0.24399662
0.18772288 0.14884141 0.24066621
0.20184399 0.14974755 0.23046008
-0.20363198 0.16596238 0.23537353
-0.18776336 0.16353169 0.23721704
-0.16623299 0.16557547 0.23878151
0.16954851 0.16511776 0.23868629
0.18796594 0.16258308 0.23741455
0.20460525 0.1638824 0.23701365
-0.20263888 0.18012761 0.23664223
-0.18585788 0.18117242 0.23765238
-0.16858989 0.18040392 0.23602918
0.17047805 0.17814773 0.24003901
0.18809326 0.17796122 0.23730212
0.20255415 0.17672031 0.23420638
-0.20022501 -0.20100003 0.27429503
-0.18964951 -0.20125826 0.25484228
-0.17199995 -0.20079088 0.25216267
0.16860202 -0.20289516 0.26121062
0.18702257 -0.20214598 0.26130888
-0.20527375 -0.1864624 0.26169571
-0.189193 -0.18880227 0.26272854
-0.16887121 -0.18701108 0.26279736
0.16788319 -0.18691176 0.26264948
0.18917897 -0.18496357 0.26285079
0.201226 -0.19038494 0.26149112
-0.20425215 -0.17355342 0.25885117
-0.18580805 -0.17014748 0.26307207
-0.17061491 -0.1717594 0.26287737
0.17006557 -0.17430794 0.26967782
0.18367738 -0.17310907 0.26409712
-0.18776697 0.14980996 0.26593113
0.17176247 0.14704749 0.2653901
0.19006695 0.14821105 0.26656103
0.20064244 0.14734763 0.26924163
-0.20391367 0.16782568 0.26065424
-0.18791196 0.1630777 0.26198137
-0.16503875 0.16370063 0.26227471
0.16917382 0.16513592 0.26078126
0.18784742 0.16282776 0.26294753
0.20380938 0.16200742 0.26143432
-0.20296513 0.17731375 0.26279277
-0.18567565 0.17975144 0.26196972
-0.16891356 0.17924201 0.2620143
0.17211504 0.17804825 0.26509604
0.18653825 0.1767402 0.26143846
0.20320296 0.17540187 0.25148094
0.16794045 -0.20190544 0.28413153
0.18500619 -0.20164523 0.28405052
-0.20375133 -0.18583716 0.28611612
-0.18847422 -0.18868479 0.28708944
-0.1676558 -0.18610753 0.28643152
0.16640642 -0.18901359 0.2876167
0.18829685 -0.18767473 0.28731018
0.20075795 -0.18687317 0.29067779
-0.20288233 -0.17111498 0.2858035
-0.18589889 -0.16854024 0.28756103
-0.16848212 -0.16961184 0.28906694
0.17075382 -0.17191291 0.28769186
0.18511784 -0.17183243 0.2881889
-0.19055603 0.14866289 0.29024959
-0.16327597 0.1495761 0.29160261
0.16816929 0.14594343 0.28875166
0.19016346 0.14711918 0.2893365
0.20187362 0.14848576 0.28699365
-0.20248979 0.16583714 0.28299883
-0.18664896 0.16299233 0.28784516
-0.16542144 0.16134164 0.28776747
0.16990697 0.16320838 0.28728801
0.18722743 0.16434194 0.28706691
0.20269904 0.16099623 0.28659433
-0.20176621 0.17806756 0.29372847
-0.18388139 0.1778986 0.28776231
-0.16929793 0.17777427 0.28750357
0.17241117 0.17620862 0.28396839
0.18768974 0.17598654 0.28311464
0.17245278 -0.20272812 0.30785507
0.18188228 -0.20045428 0.31302619
-0.20349167 -0.18444596 0.31163681
-0.18853298 -0.18674989 0.31230521
-0.16757195 -0.18526776 0.3109304
0.16639706 -0.18724598 0.31246045
0.18810831 -0.18811555 0.31215316
0.20104218 -0.18322539 0.30483449
-0.20306106 -0.17127439 0.31368303
-0.18543953 -0.16697267 0.31243563
-0.16775106 -0.16834788 0.31357801
0.16969538 -0.1708491 0.3120884
0.18430634 -0.17005073 0.31321213
-0.18550968 0.14793405 0.31334308
-0.16930237 0.14804418 0.31392747
0.17039976 0.14511067 0.31386867
0.18762635 0.14624718 0.31277734
0.20275515 0.147296 0.30806279
-0.20220949 0.16244483 0.30897456
-0.18651621 0.16420157 0.31240463
-0.16417958 0.16280694 0.31302029
0.16867171 0.16212733 0.31424233
0.18676814 0.16431497 0.31193623
0.20275331 0.15880944 0.31268156
-0.18577039 0.17697473 0.31056523
-0.16889639 0.17683369 0.31129974
0.1796592 0.17527336 0.30254489
0.17274114 -0.20005089 0.32742769
-0.20262933 -0.18325448 0.33577064
-0.18857059 -0.1852555 0.33705044
-0.16576205 -0.18333389 0.33743826
0.14996971 -0.18541992 0.347866
0.16563882 -0.18682678 0.33744013
0.18788524 -0.18644236 0.33768433
0.20047043 -0.18364885 0.33857527
-0.2018892 -0.17066683 0.33757204
-0.1865935 -0.16546293 0.33662316
-0.16751835 -0.16581737 0.33777627
0.16969921 -0.16981688 0.33732826
0.18347277 -0.16808756 0.3373324
-0.1843414 0.14653325 0.33995333
-0.1675081 0.14671284 0.33898729
0.16789652 0.14365984 0.33885673
0.18801059 0.14385612 0.33773226
0.20152764 0.14637402 0.34024489
-0.20144729 0.16039319 0.33366531
-0.18668644 0.16369608 0.33691081
-0.16377136 0.16409633 0.33712915
0.16885421 0.16147095 0.33720979
0.18678768 0.16262753 0.33668438
0.20227383 0.15780573 0.33671227
-0.18155888 0.17586863 0.33461282
-0.17158662 0.17629857 0.33075562
-0.20279604 -0.18124513 0.35801578
-0.18737432 -0.18306288 0.36178949
-0.16505423 -0.18261629 0.36198884
0.16602547 -0.18613085 0.36196661
0.18739264 -0.18543904 0.36213088
-0.2020984 -0.16893651 0.36820069
-0.18662243 -0.16414525 0.36206633
-0.16589355 -0.16376098 0.36195096
0.16841741 -0.16811045 0.36332878
0.18518305 -0.1668389 0.36298463
-0.18413633 0.14588329 0.36323443
-0.16521901 0.14541528 0.36351332
0.1688229 0.14294507 0.36289978
0.18871041 0.14242937 0.3624855
0.20232444 0.14629602 0.3645305
-0.20069328 0.15481248 0.37146491
-0.18554716 0.1628826 0.36200297
-0.16350852 0.16368918 0.36249045
0.16859999 0.15956043 0.3616854
0.18630463 0.1604448 0.36150721
0.20181015 0.15519369 0.36185673
-0.17887092 0.17641777 0.35080126
-0.1717689 0.17568336 0.35288623
-0.20001601 -0.17886156 0.38800365
-0.1859512 -0.18149549 0.38731915
-0.16468464 -0.18106763 0.38709265
0.1479369 -0.18000448 0.37987912
0.16710858 -0.18553104 0.38623765
0.18522739 -0.18442097 0.38755274
-0.18631545 -0.16380572 0.38742846
-0.16433226 -0.16194816 0.38765165
0.16676593 -0.16674444 0.38775238
0.18492411 -0.1657522 0.38728109
-0.18459608 0.1448548 0.38781884
-0.16369507 0.14388791 0.38771978
-0.14833139 0.14684898 0.3932687
0.16875605 0.14345928 0.3889322
0.18780082 0.14091617 0.38663146
0.20121408 0.14432989 0.38935542
-0.18411718 0.16056769 0.38714853
-0.16333975 0.16255407 0.38666642
-0.14906007 0.15235302 0.39636129
0.16892703 0.1587546 0.38757282
0.18525459 0.15918045 0.38703781
-0.13469577 -0.27697748 0.42176685
-0.11576887 -0.27941477 0.42241302
-0.089224666 -0.28442016 0.42168856
-0.063827507 -0.28641474 0.42098531
-0.036754139 -0.28965724 0.42115292
-0.011515325 -0.28986093 0.42202514
0.015598072 -0.29054129 0.42151651
0.037278499 -0.28946277 0.42142871
0.061147526 -0.28842232 0.42156187
0.08717981 -0.285422 0.42170429
0.11378688 -0.28094357 0.42194971
0.13652998 -0.27889654 0.42134261
0.15225717 -0.27760053 0.42070091
-0.18427084 -0.26222908 0.42454815
-0.16258484 -0.2690331 0.42236111
-0.13898355 -0.2740792 0.42268625
0.14520645 -0.27236512 0.42004079
0.16491057 -0.26974854 0.42137346
0.18833224 -0.26278192 0.42179126
0.20284587 -0.25520825 0.42416784
0.21451902 -0.24233523 0.42441234
-0.18290892 -0.17898723 0.41114473
-0.16560721 -0.18013752 0.41182747
0.16657011 -0.18262272 0.41211963
0.18503803 -0.18249522 0.41162768
-0.20139357 -0.16700757 0.40307295
-0.18496074 -0.16224806 0.41191423
-0.16243553 -0.16077162 0.41313285
0.16655746 -0.16458529 0.41218245
0.18411358 -0.16352168 0.41184473
-0.18318936 0.14341934 0.41361111
-0.16236098 0.14167681 0.41195196
0.16870731 0.14194483 0.4117294
0.1883942 0.14022945 0.41299522
0.20078559 0.14385088 0.41813865
-0.18272053 0.15914692 0.41129461
-0.16273956 0.16113418 0.41171297
-0.1492172 0.15391248 0.41331887
0.1689723 0.15639234 0.41180247
0.18495899 0.15756324 0.41239423
0.20169385 0.15002114 0.41655931
-0.15577152 -0.27697438 0.43937582
-0.13478027 -0.27836481 0.43797368
-0.11204656 -0.28083935 0.43884313
-0.08705727 -0.2842623 0.43912229
-0.063064992 -0.28607279 0.43888628
-0.037481233 -0.28726515 0.44000259
-0.011575168 -0.28791162 0.43970889
0.012481168 -0.28801492 0.43977991
0.037575785 -0.28696138 0.44016051
0.06222716 -0.28650576 0.43911573
0.087038606 -0.28436434 0.43949556
0.1125911 -0.28148451 0.43874809
0.13565552 -0.27868283 0.43939605
0.15494339 -0.27716652 0.44033593
-0.20701386 -0.2545729 0.43821445
-0.18695426 -0.25975561 0.43887007
-0.16257019 -0.2668975 0.44016981
-0.13840593 -0.26585272 0.44399205
-0.11184291 -0.26420328 0.44588563
-0.087289207 -0.26352459 0.44543678
-0.06200774 -0.26511469 0.44589204
-0.036893595 -0.26379362 0.44608381
-0.0109015 -0.2644839 0.44562262
0.011887087 -0.26266646 0.44581825
0.037350044 -0.26388785 0.44582614
0.062667616 -0.26434752 0.44520846
0.087509282 -0.26326114 0.44566971
0.11208334 -0.26298362 0.44530377
0.13958332 -0.26476276 0.44371757
0.16358906 -0.26666018 0.44214416
0.18669365 -0.26210999 0.4416841
0.20721684 -0.25418651 0.44082919
-0.23054942 -0.23145051 0.44125962
-0.21384871 -0.24054416 0.4405621
-0.19006358 -0.24324965 0.44655788
-0.16366082 -0.24260922 0.44803333
-0.1393345 -0.24238297 0.44781926
-0.11246303 -0.24260835 0.44773039
-0.088745229 -0.24034381 0.44834587
-0.062624827 -0.24348734 0.44753018
-0.037954524 -0.24178767 0.44785669
-0.011692565 -0.24154396 0.44794407
0.013400316 -0.24101131 0.44776478
0.036628049 -0.24167657 0.44764259
0.064066343 -0.24065055 0.44774511
0.088964179 -0.24097425 0.4475137
0.11300963 -0.24083906 0.4478595
0.13577153 -0.23888922 0.44754374
0.1644472 -0.24189578 0.44739911
0.18701997 -0.23944028 0.44775698
0.21506427 -0.24168651 0.44302544
0.23173611 -0.23341267 0.44353995
-0.2527537 -0.20590372 0.44209632
-0.23984133 -0.21356598 0.44221199
-0.22006451 -0.21981533 0.44404587
-0.13423401 -0.22471064 0.44966865
-0.089654371 -0.22321668 0.44948897
-0.015756845 -0.21957111 0.44934511
0.0050871372 -0.221901 0.44709253
0.06851095 -0.21991879 0.44965672
0.12614602 -0.22122088 0.44954717
0.21345049 -0.22304547 0.44848946
0.24296379 -0.21660146 0.44299716
0.25334415 -0.20893614 0.44275498
-0.25569683 -0.18742111 0.44533667
-0.24673051 -0.19210285 0.44471711
-0.18127307 -0.17722473 0.43062907
-0.16527373 -0.17812374 0.43533912
0.17047821 -0.18101156 0.434443
0.18391581 -0.18078984 0.43514055
0.2465443 -0.19644798 0.43970823
0.25793508 -0.18871687 0.44461325
-0.26097247 -0.16395201 0.44725192
-0.18290727 -0.16109286 0.43207932
-0.1611968 -0.16018407 0.43672806
0.1664421 -0.16227806 0.43466333
0.1850335 -0.16262726 0.43725893
0.26320499 -0.16396253 0.44527757
-0.26099202 -0.14124858 0.44806135
-0.16922803 -0.14905447 0.43954989
0.26670253 -0.13813174 0.44936204
-0.26089284 -0.12096432 0.44959128
0.26656306 -0.10926098 0.44986343
0.24648881 0.055897355 0.4492363
-0.1815035 0.14356017 0.43597537
-0.16145311 0.14068119 0.43628255
-0.14900909 0.14620669 0.43891844
0.16855837 0.14069985 0.43737257
0.18746027 0.13808408 0.43725812
-0.18063594 0.15733634 0.43494537
-0.16418743 0.15918587 0.4367643
-0.14849049 0.15129954 0.43438867
0.17003793 0.15467416 0.43696505
0.18482181 0.15540031 0.43636
-0.15640792 -0.27807054 0.45709363
-0.13747975 -0.27865395 0.45601472
-0.11066552 -0.28059983 0.45578769
-0.086374775 -0.2816397 0.45564619
-0.061322957 -0.28355917 0.45590281
-0.037481811 -0.28405192 0.45550784
-0.010912742 -0.28408545 0.45505047
0.013325916 -0.28500351 0.45543793
0.037516449 -0.2846033 0.4550676
0.062416498 -0.28312674 0.4557465
0.087111369 -0.2822929 0.45528749
0.11190679 -0.28101727 0.45559874
0.1367016 -0.27894008 0.4545393
0.15683678 -0.27840444 0.45555803
-0.20654073 -0.2545827 0.45881611
-0.18655354 -0.25736338 0.45747867
-0.16270351 -0.26104566 0.45824066
-0.1373979 -0.26176715 0.45846432
-0.11259952 -0.26161134 0.45846903
-0.08725743 -0.26251614 0.45824203
-0.062051442 -0.26213461 0.4583225
-0.037149999 -0.26152393 0.45804626
-0.01194153 -0.26155001 0.45803407
0.012687133 -0.26116258 0.45835444
0.037531562 -0.26213723 0.45794713
0.062828168 -0.261323 0.45838824
0.086722754 -0.26193199 0.45828867
0.11237865 -0.26232198 0.45816863
0.1377746 -0.26162603 0.4583483
0.16261438 -0.26112819 0.45817816
0.18658744 -0.25916642 0.45812061
0.20732784 -0.25487307 0.45632118
-0.23275898 -0.23028024 0.4584434
-0.21174641 -0.2356744 0.45980492
-0.18822335 -0.23692799 0.45965409
-0.16283311 -0.23670322 0.45997545
-0.1372613 -0.2370908 0.45960018
-0.11295143 -0.23698531 0.460388
-0.087673016 -0.23739357 0.46012419
-0.062663913 -0.23728405 0.4605504
-0.037470378 -0.23681921 0.46037737
-0.011494223 -0.23696613 0.46103922
0.013137488 -0.23672305 0.46058124
0.037137654 -0.23738714 0.46038282
0.06292931 -0.23753785 0.46055257
0.08805491 -0.23701005 0.46064585
0.11276626 -0.23723909 0.46090642
0.13719445 -0.23726048 0.46093246
0.16278149 -0.23746639 0.46121886
0.18798259 -0.23789032 0.46084312
0.21297018 -0.23675384 0.46067163
0.23308899 -0.23115002 0.45892137
-0.25263837 -0.20758945 0.46148375
-0.23550138 -0.21201286 0.46200791
-0.21200632 -0.21308066 0.46389806
-0.1869562 -0.21345623 0.46351764
-0.16225858 -0.21298897 0.46297821
-0.13702084 -0.2126779 0.46335247
-0.11188545 -0.21296383 0.46401408
-0.087179326 -0.21276109 0.46417639
-0.062603481 -0.212778 0.46425608
-0.03729846 -0.21360552 0.46381974
-0.011950443 -0.21262802 0.46417767
0.01284575 -0.21331744 0.46390238
0.037640527 -0.21344426 0.46392795
0.062136736 -0.21297742 0.46517864
0.087095909 -0.21199985 0.46397236
0.11251254 -0.21311316 0.4645457
0.13707899 -0.21352401 0.46407959
0.16232075 -0.21253636 0.46404928
0.18659517 -0.21307354 0.46402952
0.21224119 -0.2127602 0.46525908
0.23656686 -0.21264774 0.4630726
0.2535882 -0.20646502 0.46072826
-0.25683019 -0.18607152 0.46180007
-0.23842813 -0.18772458 0.46550795
-0.21262027 -0.18758352 0.46662411
-0.1880243 -0.18796186 0.46604282
-0.16306965 -0.1878852 0.46626586
-0.13764487 -0.18715264 0.46666187
-0.11277897 -0.18831025 0.46615672
-0.088021457 -0.18850984 0.46641713
-0.062826052 -0.18833543 0.46608043
-0.037777852 -0.18841785 0.46650138
-0.011523583 -0.18794826 0.46656191
0.01387935 -0.18896142 0.46654487
0.037432697 -0.18861453 0.46674442
0.062764414 -0.18814901 0.4666265
0.0878895 -0.18806542 0.46687439
0.11249211 -0.18787031 0.46658701
0.13749272 -0.18816482 0.46712428
0.16252193 -0.18796766 0.46695533
0.18812796 -0.18823494 0.46652567
0.21296111 -0.18739082 0.46731678
0.23738249 -0.18843438 0.46712676
0.25810313 -0.18706495 0.46461707
-0.26010323 -0.16181542 0.46356198
-0.23708515 -0.16330954 0.46987748
-0.21229814 -0.16357413 0.46953407
-0.18876478 -0.16350953 0.46908289
-0.16273358 -0.16348012 0.46778572
-0.13723116 -0.16295224 0.46927068
-0.11270987 -0.16375206 0.46886075
-0.088140294 -0.16382848 0.46877569
-0.062944964 -0.163877 0.46901438
-0.037469715 -0.16317202 0.46866205
-0.011876071 -0.16345125 0.46890599
0.013119588 -0.16348919 0.46854603
0.037121672 -0.16346319 0.46856153
0.06246569 -0.16337311 0.46889761
0.088565655 -0.16402167 0.4682543
0.11312776 -0.16265474 0.46916109
0.13794906 -0.16364634 0.46857771
0.1628527 -0.16333738 0.46854252
0.18681224 -0.16436188 0.46680567
0.21280539 -0.16339159 0.46897951
0.23829415 -0.16296092 0.46941033
0.26232544 -0.16279741 0.46641549
0.27593863 -0.15196109 0.4624857
-0.2609387 -0.13772702 0.46439752
-0.23547082 -0.13782144 0.47157857
-0.21160784 -0.13852435 0.47112694
-0.18856305 -0.13799646 0.47020191
-0.16341686 -0.13794835 0.47033972
-0.1364588 -0.13812926 0.47064945
-0.11223735 -0.13780014 0.47007543
-0.088052817 -0.13782847 0.47028655
-0.062691361 -0.13763984 0.47005239
-0.037330117 -0.13754091 0.47002789
-0.01249499 -0.13768539 0.47004795
0.012620498 -0.13778335 0.46973351
0.037871987 -0.13679679 0.46993935
0.062501363 -0.13778508 0.47030014
0.088186622 -0.13703512 0.4701443
0.11139383 -0.1377898 0.47000471
0.13636976 -0.13842621 0.46997103
0.1637183 -0.13852799 0.47012725
0.1863935 -0.13827996 0.47036219
0.21312322 -0.13789138 0.4703247
0.23753175 -0.13938358 0.47118384
0.264052 -0.1382785 0.46824107
0.27607962 -0.13644437 0.46624699
-0.26042777 -0.1130331 0.46631369
-0.23794913 -0.11308976 0.47288403
-0.21337061 -0.11375656 0.47211447
-0.18749465 -0.11259391 0.47176066
-0.16264167 -0.11296117 0.47164342
-0.13630821 -0.11367479 0.47107333
-0.11088197 -0.11231677 0.47115564
-0.08813677 -0.113409 0.47088203
-0.063194193 -0.11173033 0.47090721
-0.037492819 -0.11204745 0.4710153
-0.012485195 -0.11205974 0.47074336
0.012619928 -0.1129129 0.47073629
0.037238993 -0.11336175 0.47070912
0.062078319 -0.1129803 0.47087976
0.088291824 -0.11442566 0.47046199
0.11137556 -0.11345932 0.47066727
0.13633578 -0.11348838 0.47114766
0.16301212 -0.11344795 0.47106904
0.18704554 -0.1123525 0.47117695
0.21300937 -0.112979 0.4714658
0.23762269 -0.11383726 0.47195101
0.26527759 -0.11356439 0.46699151
0.27521217 -0.10603835 0.46749425
-0.2592847 -0.088250309 0.46535677
-0.23850499 -0.087414086 0.47197089
-0.21201824 -0.087334782 0.47237042
-0.18727908 -0.087848634 0.47205892
-0.16229229 -0.087430544 0.47205645
-0.13718973 -0.087798834 0.47145024
-0.1109641 -0.088390492 0.47168827
-0.087321393 -0.089609131 0.47134405
-0.06375584 -0.08817853 0.47127968
-0.037660681 -0.087959893 0.47150984
-0.011434353 -0.087672539 0.47127467
0.012647689 -0.087662995 0.47136435
0.037116993 -0.08803492 0.47115564
0.06262996 -0.087927423 0.47120652
0.087487616 -0.088863768 0.47133729
0.11147466 -0.088529825 0.47098303
0.13506018 -0.087188691 0.47167936
0.16339536 -0.088503353 0.47144389
0.18771662 -0.086846687 0.47143617
0.21272881 -0.08752273 0.47185108
0.23567221 -0.088039659 0.47176918
0.2638844 -0.087234639 0.46845841
-0.25809893 -0.06365516 0.46559712
-0.24102591 -0.062307786 0.47110769
-0.21271059 -0.061996259 0.47262362
-0.18717527 -0.062550694 0.472377
-0.16160649 -0.061429765 0.47210473
-0.13478737 -0.061880615 0.47180045
-0.11097188 -0.063072257 0.4718512
-0.08643239 -0.063098438 0.471766
-0.061794635 -0.063230246 0.47163513
-0.038971525 -0.064027838 0.47183716
-0.012558714 -0.06264776 0.4716261
0.012637634 -0.06295839 0.47168142
0.036924224 -0.062712878 0.47179282
0.060943361 -0.062946558 0.4715305
0.086840987 -0.063281357 0.47154999
0.11229993 -0.063182011 0.47159597
0.13718806 -0.062129438 0.47196919
0.16244014 -0.063938297 0.47161463
0.18947592 -0.063365407 0.4717859
0.21353412 -0.063692167 0.47196931
0.23752107 -0.062749162 0.47227344
0.26233584 -0.063320756 0.46742043
-0.25686181 -0.038588662 0.46449429
-0.24155474 -0.038078103 0.47057012
-0.21201289 -0.038074441 0.47282901
-0.18700233 -0.037361536 0.47265548
-0.16157411 -0.037193175 0.4726713
-0.13704512 -0.038306385 0.47215739
-0.11130047 -0.037415069 0.47209466
-0.086319834 -0.036561817 0.47223303
-0.062117986 -0.039314501 0.47165647
-0.038459238 -0.03743219 0.47215
-0.011972763 -0.038059548 0.47182015
0.012902706 -0.038282793 0.47172508
0.038132716 -0.036558483 0.47190788
0.061791573 -0.038026292 0.47230637
0.087051854 -0.037996538 0.47138095
0.11204556 -0.038529769 0.47157645
0.13709293 -0.038029414 0.47207901
0.162066 -0.038687069 0.47189528
0.18875067 -0.03685087 0.47199097
0.21219583 -0.038751572 0.47226313
0.23617676 -0.038037758 0.47238019
0.26154745 -0.037855148 0.4675321
-0.25598681 -0.012765105 0.4654038
-0.24140562 -0.011937654 0.46892419
-0.21074739 -0.012572989 0.47315508
-0.18629447 -0.012735326 0.47290927
-0.16248535 -0.012611933 0.47317976
-0.1363584 -0.012935827 0.4727639
-0.11211214 -0.012643524 0.47294596
-0.08561907 -0.012145611 0.47256261
-0.060545169 -0.01207572 0.4721007
-0.040871035 -0.011707356 0.47262821
-0.012287088 -0.012195543 0.47241789
0.011802042 -0.012600722 0.47240049
0.038239345 -0.012167477 0.47224399
0.06321004 -0.013113911 0.47222289
0.089159228 -0.012722656 0.47217494
0.11386785 -0.014445959 0.47248229
0.13797253 -0.013630099 0.47243497
0.16184916 -0.012576127 0.47274402
0.18764511 -0.012624529 0.4722518
0.2121658 -0.012862686 0.47226226
0.23764679 -0.015046855 0.47167179
0.25949317 -0.01184716 0.46665019
-0.25509256 0.012911095 0.46534103
-0.24219458 0.013518079 0.46717364
-0.21137446 0.013082125 0.47327036
-0.18509172 0.010562204 0.47290179
-0.16094142 0.011498081 0.47331178
-0.13662092 0.011851828 0.47289991
-0.11253949 0.011244894 0.47321221
-0.086860999 0.012155205 0.47291362
-0.06222019 0.013344362 0.472848
-0.035862681 0.012672682 0.47310612
-0.011738761 0.011933472 0.47265795
0.010886881 0.013333094 0.47283891
0.039269246 0.014121997 0.47260624
0.063235328 0.01131533 0.47236276
0.090231381 0.011204037 0.47243485
0.11767294 0.010840327 0.47257021
0.13862914 0.01288155 0.47234657
0.16357556 0.012473589 0.47233802
0.18828727 0.012798515 0.47244561
0.21076256 0.014331484 0.47255149
0.23815747 0.011011933 0.47164485
0.25767204 0.011936575 0.46575043
-0.25432679 0.037534729 0.46380562
-0.24233934 0.038279723 0.46734503
-0.21189111 0.038349483 0.4732056
-0.18583947 0.036946617 0.47307822
-0.16303207 0.037449166 0.47324198
-0.13782179 0.036533087 0.47320789
-0.11198296 0.036848582 0.47328511
-0.085476093 0.037841704 0.47314543
-0.05863801 0.036475081 0.47335324
-0.038244687 0.038190495 0.47283742
-0.01285922 0.037185244 0.47314906
0.011098978 0.036414813 0.47334322
0.041048594 0.035675701 0.47306746
0.062152084 0.036064927 0.47300258
0.088281631 0.035636853 0.47288972
0.11493127 0.035720218 0.47262248
0.13544159 0.034741577 0.47276038
0.15919216 0.03798724 0.47290084
0.18708278 0.038121894 0.47281045
0.21049583 0.037214283 0.4726395
0.23880702 0.038021587 0.47075418
0.25550547 0.036516346 0.46556523
-0.25303966 0.062514134 0.46413082
-0.24116065 0.0620328 0.46611455
-0.21254684 0.063555241 0.47355399
-0.18958431 0.062434148 0.47365317
-0.16230918 0.062426202 0.47356319
-0.13735059 0.061843663 0.47349316
-0.11352744 0.060963999 0.47365826
-0.086791515 0.061657932 0.47368208
-0.058790181 0.062800206 0.47381672
-0.036379043 0.0626489 0.4729625
-0.010024662 0.060696639 0.47351545
0.012058797 0.062461756 0.47324088
0.039613828 0.060289405 0.47316051
0.063766181 0.062141869 0.47322595
0.088790454 0.061983157 0.47327155
0.11307712 0.061191488 0.4730393
0.13548064 0.060953114 0.47327071
0.16089317 0.061729908 0.47315019
0.18792813 0.062776484 0.47308278
0.21114767 0.061824366 0.4725039
0.23832148 0.06381195 0.46953726
0.25469396 0.062229671 0.46571013
-0.25281617 0.086572908 0.46399528
-0.24007002 0.086728826 0.46621352
-0.21329388 0.086353607 0.47360319
-0.19029205 0.086135708 0.47360167
-0.16439375 0.08757209 0.47390673
-0.13593511 0.086113602 0.4737426
-0.11359771 0.086729378 0.47366333
-0.084541902 0.083949856 0.47398546
-0.060006358 0.083659895 0.47390029
-0.035125349 0.088049702 0.47380617
-0.011514619 0.083839133 0.47398868
0.011380948 0.088223681 0.4742119
0.036966532 0.086713135 0.47402096
0.063408963 0.086026385 0.47394869
0.083790086 0.089443944 0.47398341
0.11076279 0.083641857 0.47314775
0.13522762 0.085334122 0.47368979
0.16179278 0.085777447 0.47302181
0.18852456 0.086061962 0.47316438
0.2134027 0.088102028 0.4727332
0.23918764 0.088488385 0.46950993
0.25358027 0.087408043 0.46857131
-0.25198284 0.10959752 0.46589863
-0.2395478 0.11264531 0.46588495
-0.21511512 0.11082727 0.47372699
-0.18888494 0.11018157 0.47352237
-0.16407639 0.1117327 0.47397515
-0.13738894 0.11153696 0.47402036
-0.11601799 0.11050428 0.47416085
-0.08385466 0.11074556 0.47409406
-0.060267109 0.11354888 0.47445503
-0.033224974 0.11304766 0.47438157
-0.0095118517 0.11167091 0.47420627
0.01128951 0.11309797 0.47412679
0.037332822 0.11176064 0.47417048
0.061306603 0.11194634 0.47412014
0.083528548 0.11118125 0.47398809
0.1133622 0.10994222 0.4735612
0.13658702 0.10963015 0.47373721
0.16267 0.11054632 0.47340921
0.18862732 0.11232293 0.47311637
0.21173771 0.11143499 0.47283649
0.23960221 0.11248633 0.46921629
0.25268731 0.11108585 0.46881795
-0.2510879 0.13983013 0.4595921
-0.23862088 0.13812757 0.46553624
-0.21505627 0.13572311 0.47398362
-0.18865308 0.13706654 0.47189325
-0.16155852 0.13922587 0.46147642
-0.14441243 0.14130411 0.46512371
-0.11092629 0.13230231 0.47421089
-0.085750423 0.13426453 0.47448945
-0.056714911 0.13407208 0.47466269
-0.032254431 0.13501069 0.47456318
-0.011368294 0.13427651 0.47432724
0.0076055825 0.13028266 0.47487274
0.033483434 0.13368925 0.47455978
0.060504891 0.1329788 0.47444275
0.088950045 0.12583005 0.47415933
0.11351975 0.13680753 0.47438893
0.13835399 0.1345484 0.47411552
0.16417772 0.13975419 0.47105205
0.18883924 0.1392061 0.46222642
0.21345277 0.13608269 0.47335961
0.2418464 0.13707441 0.46802247
0.25125396 0.13596521 0.46567267
-0.23551664 0.16108066 0.46568164
-0.22062795 0.16330399 0.46911675
-0.18111792 0.15658857 0.46940303
-0.16298249 0.15720397 0.45981157
-0.14880392 0.15291932 0.46398288
-0.11292366 0.16324686 0.47471669
-0.080133319 0.15654051 0.4744913
0.02213499 0.15622687 0.4744091
0.085623465 0.15984029 0.47452387
0.11266925 0.15956816 0.47477663
0.13400982 0.15897594 0.47433689
0.16879152 0.15766793 0.46545604
0.18466069 0.15468964 0.46086431
0.21449234 0.1568256 0.47304285
0.24062279 0.16112117 0.46635509
-0.23107153 0.18494231 0.46813354
-0.21897824 0.18932377 0.46889207
0.21854906 0.18956038 0.46887046
0.23248045 0.18786965 0.46653697
-0.20877205 0.21005635 0.46969298
-0.19286513 0.21841326 0.47002965
0.19145143 0.21910627 0.47050226
0.21278785 0.21165405 0.46975854
-0.18295681 0.22821811 0.4710677
-0.16354874 0.2357834 0.47098905
-0.13769796 0.24123843 0.47156975
-0.11265038 0.24455547 0.47218475
-0.09148068 0.24762836 0.47284377
-0.068059027 0.2486282 0.46931189
0.071645901 0.24918351 0.47262168
0.098699063 0.24459273 0.47012663
0.11140388 0.24629816 0.47184867
0.13878003 0.24223742 0.47153658
0.1650963 0.23652576 0.46864757
0.18462557 0.23244807 0.47169372
-0.080677427 0.25525862 0.47259894
-0.066058986 0.2586548 0.47205833
-0.036784757 0.25301951 0.47236434
-0.010014777 0.25469109 0.4738681
0.014502808 0.25534615 0.47340009
0.033272229 0.25345948 0.47258699
0.060961913 0.25327212 0.47336745
0.083885893 0.25190735 0.47172552
0.10550219 0.25077108 0.47092205
-0.20783094 -0.23063993 0.47600529
-0.18830043 -0.22571683 0.47676194
-0.086138159 -0.22639549 0.47649264
-0.04189159 -0.23053282 0.47542906
0.069436371 -0.22860801 0.47556841
0.10672072 -0.23173213 0.47500595
0.17773175 -0.22511327 0.47613177
-0.23331149 -0.20683527 0.4778944
-0.2118109 -0.20837122 0.4773452
-0.18845055 -0.20618077 0.47649497
-0.16250424 -0.20808485 0.47720939
-0.13959247 -0.2101962 0.47680423
-0.11494917 -0.20786867 0.47665516
-0.087109193 -0.20766594 0.47726104
-0.063384444 -0.20766003 0.47719648
-0.035373021 -0.20711879 0.47671762
-0.014215647 -0.20684169 0.47737771
0.011391602 -0.2071017 0.47702968
0.038610548 -0.2068783 0.47668448
0.064419046 -0.20453021 0.47742277
0.085815914 -0.20863962 0.47637495
0.10896993 -0.20785663 0.47676334
0.13710544 -0.20660287 0.47643
0.16175096 -0.20606475 0.47639516
0.18726154 -0.20713489 0.47630626
0.21068211 -0.20616265 0.4766283
0.23577546 -0.20566989 0.47681028
-0.25526288 -0.18269292 0.48012114
-0.23683299 -0.18605635 0.47927573
-0.21169837 -0.18594167 0.47943199
-0.18638004 -0.18612184 0.48014262
-0.16106178 -0.18599482 0.47928283
-0.1374698 -0.18602087 0.47957349
-0.11221328 -0.18607216 0.47934568
-0.088090546 -0.18606308 0.47922128
-0.062897757 -0.18633412 0.47934356
-0.037740335 -0.18616296 0.47905153
-0.011510152 -0.18571855 0.47883752
0.012138669 -0.18561237 0.47912893
0.03685911 -0.18553454 0.47882634
0.061734144 -0.18639216 0.47918072
0.086785942 -0.18580703 0.4788835
0.11219802 -0.18610822 0.47872698
0.13847119 -0.18648182 0.47896308
0.16214505 -0.18618949 0.47876194
0.1878425 -0.18669693 0.47887781
0.21239257 -0.18571959 0.4787339
0.23724514 -0.18632014 0.47860318
0.25502142 -0.18489516 0.47983596
-0.25738499 -0.16124152 0.48124695
-0.23691167 -0.16015834 0.48229298
-0.21315958 -0.16179764 0.48214281
-0.18748431 -0.16205506 0.48147443
-0.1625955 -0.16149563 0.48194525
-0.13720798 -0.16245955 0.48116517
-0.11251488 -0.16265753 0.48149842
-0.087477341 -0.1620304 0.48134452
-0.062432591 -0.1627074 0.48098543
-0.037204336 -0.16222364 0.48095104
-0.011380193 -0.16257033 0.48096839
0.012581643 -0.16123289 0.481682
0.036678001 -0.16182399 0.48090115
0.062906481 -0.16286917 0.48135048
0.08756645 -0.16196626 0.48084995
0.11305115 -0.16260183 0.48097619
0.13717367 -0.16202109 0.48111641
0.16255912 -0.16218968 0.48149911
0.18826815 -0.16192363 0.48164174
0.2127694 -0.1616272 0.48150033
0.23685069 -0.16169256 0.4818134
0.25984171 -0.1604396 0.48029482
-0.2596046 -0.13715795 0.48328885
-0.23793776 -0.13682424 0.48336884
-0.21309738 -0.13729493 0.48295802
-0.18770382 -0.1379834 0.48325807
-0.16244105 -0.13644418 0.48218143
-0.13689198 -0.13685964 0.48227993
-0.11260005 -0.13702835 0.48230347
-0.087412417 -0.13723101 0.4824599
-0.062550664 -0.13684934 0.48214084
-0.037198946 -0.13816169 0.48221326
-0.011337981 -0.13763313 0.48197567
0.012541605 -0.1374317 0.4819366
0.037165016 -0.1375102 0.48199311
0.061921928 -0.1377258 0.48232976
0.087520234 -0.13781793 0.48229301
0.11244947 -0.13731909 0.48249722
0.13678458 -0.13767576 0.48271948
0.16325511 -0.13762103 0.4825601
0.18812707 -0.13791426 0.48322257
0.21281028 -0.13704516 0.48339218
0.23738807 -0.13807335 0.48362088
0.26071274 -0.13752182 0.48288268
-0.25920099 -0.11180481 0.48430693
-0.23746981 -0.11200889 0.48361218
-0.21210799 -0.11171377 0.48416895
-0.1876453 -0.1123999 0.48304775
-0.16301085 -0.11225738 0.48389179
-0.13760008 -0.11193176 0.48345444
-0.1129461 -0.11226717 0.48290497
-0.086176522 -0.11235619 0.48341799
-0.062504098 -0.11207912 0.48307899
-0.038107377 -0.11180541 0.48236194
-0.011923347 -0.11230523 0.48303652
0.012696682 -0.11224183 0.48325363
0.037439965 -0.11136615 0.48291311
0.062783547 -0.11192681 0.4830063
0.08760988 -0.11169994 0.4834736
0.11291264 -0.11243219 0.48245531
0.13753083 -0.11235341 0.48396593
0.16223943 -0.11210816 0.48394853
0.18733063 -0.11261867 0.48371509
0.21243927 -0.11271391 0.48423758
0.23691955 -0.11259428 0.48463735
0.26080987 -0.11213142 0.48269638
-0.25887316 -0.087397426 0.48515844
-0.23705748 -0.087897062 0.48421621
-0.21233097 -0.087674253 0.48417264
-0.18753079 -0.087571166 0.48304471
-0.16310349 -0.087838404 0.48404846
-0.13795939 -0.087005422 0.48333028
-0.112834 -0.08739309 0.4838604
-0.087586284 -0.087440655 0.48409507
-0.062591039 -0.087130286 0.48369789
-0.03830459 -0.087398626 0.48331147
-0.012247558 -0.087201282 0.48396748
0.013140612 -0.087416664 0.48402268
0.038829029 -0.087300874 0.48340413
0.062720403 -0.086805508 0.48342964
0.087514572 -0.087597832 0.48409861
0.11244027 -0.087760784 0.48367336
0.13698712 -0.088105746 0.48396465
0.16210216 -0.087502584 0.48415738
0.18707494 -0.087291069 0.48458767
0.21205132 -0.088058308 0.48470297
0.23661956 -0.087119371 0.4852024
0.26038662 -0.088373661 0.48350018
-0.25774133 -0.062751651 0.48458552
-0.23793551 -0.062536716 0.48442832
-0.21180429 -0.062782377 0.48439488
-0.18768725 -0.062584743 0.48341614
-0.16274732 -0.062196705 0.48413312
-0.13809562 -0.062403269 0.48377544
-0.11337537 -0.062712431 0.4835836
-0.087571353 -0.062747538 0.48389858
-0.063647076 -0.062325075 0.48388684
-0.038022909 -0.062021814 0.48360297
-0.011604632 -0.061949007 0.48411775
0.012755655 -0.06226996 0.48434371
0.038086709 -0.062993824 0.48354951
0.063097052 -0.062586129 0.48374888
0.087338239 -0.062306069 0.48450425
0.1123238 -0.063145608 0.4840261
0.1372409 -0.06239114 0.48453042
0.16181946 -0.062321853 0.48472655
0.18646131 -0.062397156 0.48445901
0.21196033 -0.062140491 0.48515758
0.23698615 -0.061855566 0.48485282
0.25859863 -0.063295014 0.48383513
-0.25732309 -0.037421066 0.48465309
-0.23735496 -0.037499964 0.48498026
-0.21267591 -0.037976865 0.48465052
-0.18813597 -0.037204467 0.48444301
-0.16298951 -0.03780935 0.48436019
-0.13779075 -0.037294321 0.48396209
-0.11377425 -0.037302237 0.48434663
-0.087349765 -0.037752762 0.48442936
-0.062712163 -0.038129479 0.48445797
-0.038077042 -0.037237693 0.48383078
-0.011477324 -0.037213333 0.484736
0.013164342 -0.036926404 0.48481864
0.038867056 -0.037979737 0.48434955
0.062788159 -0.037620939 0.48469615
0.087584414 -0.037101414 0.48460856
0.11219541 -0.037453748 0.48476598
0.13691741 -0.036861964 0.48455924
0.16279364 -0.037774865 0.4858647
0.18733071 -0.037667785 0.48472703
0.21238165 -0.037425026 0.48536155
0.23724505 -0.03809515 0.48559362
0.25783691 -0.037095826 0.4838092
-0.25636965 -0.013650043 0.48454127
-0.23810956 -0.012574528 0.48451224
-0.21281929 -0.012976656 0.48363611
-0.18820769 -0.012218617 0.48439369
-0.16287526 -0.012586456 0.48504657
-0.13805521 -0.012778314 0.48475513
-0.11293351 -0.012697877 0.4848226
-0.087535717 -0.012225659 0.48483789
-0.062583663 -0.012528009 0.48458827
-0.038011536 -0.012437272 0.48466694
-0.011580583 -0.012973608 0.48546433
0.013430816 -0.012413608 0.48550871
0.037896734 -0.012898732 0.48400024
0.062578663 -0.012273335 0.4847666
0.0877029 -0.012234023 0.48523569
0.11230889 -0.012265493 0.48497817
0.13678727 -0.01233759 0.48501554
0.16245049 -0.01203297 0.48612615
0.18714461 -0.012396539 0.48479655
0.2125039 -0.012799174 0.4855316
0.23731144 -0.013045036 0.48556578
0.25702748 -0.012987075 0.48325786
-0.25590849 0.01023546 0.48569798
-0.23751341 0.012796038 0.48491156
-0.21279573 0.012510966 0.48431203
-0.18743961 0.013285201 0.48488197
-0.16277672 0.012757117 0.48487541
-0.13753648 0.012575584 0.48495325
-0.1132671 0.013284978 0.48489994
-0.087537207 0.012436698 0.48528257
-0.062409744 0.012136524 0.48590946
-0.038273282 0.012255795 0.48493409
-0.0116305 0.012529124 0.48546433
0.013301023 0.012738217 0.48620394
0.038016204 0.01212638 0.48538616
0.062459059 0.012243249 0.48594671
0.087854572 0.012677791 0.48616165
0.11294854 0.012947685 0.48510286
0.13704702 0.012495155 0.48550174
0.16190858 0.012409793 0.48620558
0.18723233 0.012626081 0.48570368
0.21268657 0.012472333 0.48600021
0.23722857 0.012891726 0.48559415
0.25569966 0.012652019 0.48286802
-0.25580806 0.035965197 0.4827016
-0.23648044 0.037317589 0.48394203
-0.21297865 0.03756392 0.48413101
-0.18769519 0.037941135 0.48462486
-0.1619873 0.037848301 0.48527792
-0.13767567 0.038034577 0.48538536
-0.11323751 0.03790649 0.48540783
-0.086934641 0.037527446 0.48544881
-0.062136538 0.037496999 0.4856939
-0.038342938 0.037373506 0.48559353
-0.012023137 0.037614226 0.48603493
0.013609513 0.037859987 0.48664191
0.037468832 0.037183754 0.48560682
0.063000299 0.037057132 0.48684126
0.087950371 0.037513748 0.48686972
0.11247169 0.038057722 0.48623484
0.13761057 0.037826661 0.48661095
0.16301815 0.037381165 0.48644596
0.1874205 0.03783888 0.48641461
0.21177101 0.037486259 0.48611045
0.23627068 0.037587743 0.48575652
0.25580436 0.036801718 0.48210716
-0.25649324 0.061241318 0.48201466
-0.23641266 0.06227937 0.48447964
-0.21208873 0.062659368 0.48509774
-0.18758059 0.062599935 0.48572603
-0.16253974 0.063010357 0.48568448
-0.13759573 0.062378228 0.48588023
-0.11318284 0.062722102 0.48538506
-0.087308057 0.062563032 0.48607072
-0.061665114 0.062293161 0.48686528
-0.038406137 0.062350363 0.48644972
-0.012142106 0.061950617 0.48667797
0.012853719 0.062329438 0.4865036
0.037663236 0.062367205 0.48620892
0.062148806 0.061981026 0.48662275
0.08718507 0.062707685 0.48633972
0.11227911 0.062588982 0.4859755
0.13735946 0.062440313 0.48726684
0.16258129 0.06220888 0.48639518
0.18655853 0.062537551 0.48597592
0.2112927 0.062773503 0.48627982
0.23650609 0.062636755 0.48548254
0.2544941 0.061739571 0.48193333
-0.25434831 0.080103658 0.4783814
-0.23539928 0.087422609 0.48452556
-0.21217126 0.086131245 0.48434043
-0.18762073 0.087462001 0.48529819
-0.1622102 0.087299474 0.48499149
-0.13783292 0.087227918 0.48615965
-0.11293452 0.087200798 0.48575392
-0.087075472 0.086447388 0.48648292
-0.061771039 0.087185413 0.48638979
-0.037979871 0.087353036 0.48661655
-0.012616751 0.087190039 0.48677361
0.013077193 0.087298065 0.48711893
0.037616085 0.087282963 0.48709953
0.062436093 0.087223448 0.48724434
0.086730599 0.087209068 0.48738778
0.11281504 0.086297952 0.48726693
0.13756049 0.087447368 0.48769605
0.16165149 0.08716289 0.48666397
0.18687871 0.08713223 0.48708612
0.21085326 0.086773016 0.48693904
0.2359325 0.086686164 0.48541847
0.25383234 0.08684966 0.48203328
-0.2509867 0.11589874 0.47970086
-0.23454218 0.11250134 0.48472387
-0.21181138 0.11211716 0.48422444
-0.18756872 0.11286972 0.48545086
-0.16227947 0.11276957 0.48499814
-0.13773391 0.11261109 0.48645374
-0.11291374 0.11271702 0.48562735
-0.087718599 0.11240633 0.48609954
-0.061672889 0.11322296 0.48690516
-0.037439562 0.11296836 0.48671353
-0.011969507 0.11234535 0.48671725
0.012040518 0.11247738 0.48677668
0.037453201 0.11266399 0.48762748
0.062644862 0.11310832 0.4879683
0.086951524 0.11248072 0.48671383
0.11299515 0.11243349 0.48740098
0.13781601 0.11198044 0.48771259
0.1621592 0.11268905 0.48724753
0.18685164 0.11280318 0.48692486
0.21235736 0.11243323 0.48644271
0.2364369 0.11263879 0.48559019
0.25298771 0.11134771 0.48203149
-0.25119412 0.13524592 0.48612276
-0.23477502 0.13679343 0.48522669
-0.21217683 0.13756828 0.48475
-0.18760648 0.13783257 0.48623261
-0.16206379 0.13749456 0.48581818
-0.13727802 0.13745148 0.48790386
-0.11269996 0.13682865 0.48641491
-0.08764673 0.13765319 0.48718327
-0.061991896 0.137951 0.48784325
-0.037405651 0.13773809 0.48762524
-0.012217845 0.13741267 0.48809695
0.01280526 0.13729006 0.48809069
0.037922882 0.13758142 0.48835227
0.062068298 0.1383222 0.48876601
0.087106101 0.13704014 0.48822048
0.11312718 0.13762854 0.4885487
0.13820963 0.13706526 0.48810536
0.16154873 0.13729046 0.4877989
0.18695001 0.13763382 0.48770821
0.21226445 0.13841827 0.48732579
0.23621245 0.13716857 0.48574081
0.25233921 0.13564725 0.47932291
-0.25000745 0.15308711 0.482813
-0.23381953 0.16133097 0.48506865
-0.21305746 0.16302033 0.484974
-0.18742093 0.16215374 0.4868356
-0.1624146 0.162159 0.48633328
-0.13755931 0.16236918 0.48776197
-0.11215562 0.16201971 0.48728719
-0.086921521 0.16241133 0.48727137
-0.061658066 0.16252813 0.48764586
-0.036501702 0.16206546 0.48802072
-0.011320049 0.16218261 0.48797286
0.012623128 0.16216266 0.48793301
0.037124421 0.16222039 0.48807535
0.062897258 0.16231647 0.48830265
0.086632028 0.16195023 0.48843864
0.11270835 0.1625616 0.48855677
0.13794459 0.1623219 0.48853216
0.16194591 0.16218597 0.48828661
0.18704432 0.16256571 0.48856416
0.21251149 0.16341443 0.48780251
0.23531255 0.16232777 0.48530701
0.25156045 0.15121454 0.48405954
-0.23099366 0.18434475 0.48588264
-0.21265213 0.18772636 0.48707718
-0.18717241 0.18732303 0.48857698
-0.16296956 0.18671489 0.48887828
-0.13771725 0.18667878 0.48851496
-0.11231313 0.1873063 0.48859656
-0.087462157 0.18736695 0.48876891
-0.06246898 0.18734147 0.48967326
-0.037467588 0.187307 0.48958403
-0.011720967 0.18722384 0.48914096
0.011923095 0.18629445 0.48962963
0.037288994 0.18756421 0.48911801
0.062416747 0.18741731 0.4899385
0.086701281 0.18722057 0.48972362
0.11313787 0.1866987 0.4899911
0.13817741 0.18734953 0.48997959
0.16287966 0.18708977 0.49086428
0.18693665 0.18696193 0.48997566
0.21221727 0.18773383 0.49027073
0.23172508 0.18498231 0.48653781
-0.2262878 0.20175572 0.48852482
-0.20784277 0.20977356 0.48714292
-0.18918721 0.21429116 0.48938939
-0.16344054 0.2118596 0.49113247
-0.13721225 0.21202555 0.49091929
-0.11221755 0.21186097 0.49198094
-0.087633312 0.2116701 0.49137297
-0.062678061 0.211946 0.49128243
-0.038331416 0.21283364 0.49108011
-0.010854592 0.21232951 0.49215144
0.01315933 0.21145156 0.49089941
0.037979592 0.21230014 0.49150404
0.062585972 0.21225807 0.49185121
0.087217391 0.21260057 0.4919931
0.11317267 0.21202269 0.49178779
0.13833226 0.21167727 0.49163187
0.16396241 0.21243201 0.49162164
0.18823543 0.21198939 0.49111894
0.21019235 0.21090205 0.48954469
0.22581175 0.20242491 0.48755366
-0.20294157 0.22686377 0.47779894
-0.18304226 0.22878082 0.4861528
-0.1616995 0.23325849 0.48939902
-0.1370438 0.23695508 0.48975497
-0.1128628 0.23991226 0.49056423
-0.088142902 0.24066184 0.49084532
-0.063795298 0.23866859 0.49207452
-0.038196284 0.23723565 0.49295229
-0.010966114 0.23692234 0.49331018
0.013076102 0.23704985 0.49330825
0.039617363 0.23816235 0.49297073
0.062852092 0.23837982 0.49298036
0.088457964 0.2399229 0.49158403
