# .PCD v0.7 - Point Cloud Data file format
VERSION 0.7
FIELDS x y z
SIZE 4 4 4
TYPE F F F
COUNT 1 1 1
WIDTH 1378
HEIGHT 1
VIEWPOINT 0 0 0 1 0 0 0
POINTS 1378
DATA ascii
-0.062660858 -0.21246614 0.48327687
-0.036737762 -0.21281175 0.4837032
-0.013338468 -0.21286453 0.48212814
0.012440845 -0.21256131 0.48276335
0.037526228 -0.2125821 0.48352271
0.06215376 -0.21170753 0.48317543
0.08682546 -0.21283083 0.48295099
0.11223748 -0.21231931 0.48336974
0.13737532 -0.21318087 0.4829759
0.162559 -0.21278825 0.48349842
0.19009355 -0.21278067 0.4858852
0.20718937 -0.21314237 0.4873803
-0.28223535 -0.18744688 0.48672286
-0.26426089 -0.18774663 0.48499641
-0.23693824 -0.18699528 0.48362088
-0.21255462 -0.18624863 0.48294154
-0.18806094 -0.1873835 0.48371327
-0.16299377 -0.18690546 0.48320702
-0.1378976 -0.18672366 0.48297268
-0.11091072 -0.1872156 0.48287678
-0.087180942 -0.18699566 0.48309517
-0.061661918 -0.18696707 0.48306802
-0.036471058 -0.18791057 0.48343661
-0.013683814 -0.18842991 0.48261443
0.012897766 -0.18758905 0.48299018
0.036668941 -0.18784453 0.48345321
0.062156193 -0.18772577 0.48271999
0.086779952 -0.18698242 0.4835957
0.11240154 -0.18646783 0.48330623
0.13852657 -0.18778835 0.48335546
0.16347079 -0.18655895 0.48373452
0.19050865 -0.18767381 0.48597503
0.20766157 -0.18812713 0.4874022
-0.28229153 -0.16240034 0.48631716
-0.26430011 -0.16247404 0.48361364
-0.23657836 -0.16383369 0.48251626
-0.21373181 -0.16294855 0.48261666
-0.18617031 -0.16269435 0.48255536
-0.16186088 -0.16328476 0.48305151
-0.13750947 -0.16312827 0.48331982
-0.11206588 -0.1626883 0.48346829
-0.088205405 -0.16181448 0.48341504
-0.061896853 -0.16277827 0.48286316
-0.03667197 -0.16258666 0.48379329
-0.014031175 -0.16265713 0.48276109
0.012333166 -0.16226849 0.48323321
0.03720428 -0.16266628 0.48347634
0.062161636 -0.16369115 0.48368713
0.087776363 -0.16281855 0.48303548
0.11293215 -0.16250142 0.48369697
0.138695 -0.16265067 0.48388213
0.16331767 -0.16282222 0.48380491
0.18925127 -0.16303588 0.48499629
0.20746543 -0.16239305 0.48735273
-0.28212211 -0.13799834 0.48688743
-0.26323068 -0.13794966 0.48339558
-0.23705916 -0.13885535 0.48258558
-0.21314913 -0.13756599 0.48268771
-0.18694946 -0.13718177 0.48293146
-0.16261347 -0.13783054 0.48269552
-0.13698496 -0.13801961 0.48277289
-0.11253873 -0.13819858 0.48327473
-0.088442385 -0.13735171 0.48323861
-0.061842423 -0.13847883 0.48339173
-0.036102459 -0.13741393 0.48346576
-0.013398767 -0.13743611 0.48248872
0.013126499 -0.13769709 0.48304448
0.037015025 -0.13775307 0.48363447
0.062282242 -0.13791119 0.48319104
0.087215744 -0.13741048 0.48299268
0.11163173 -0.13782027 0.48312977
0.13859272 -0.1370113 0.48316669
0.16266415 -0.13772854 0.48374471
0.18902563 -0.13779028 0.48495468
0.20785324 -0.13771181 0.48671618
-0.28211072 -0.11337723 0.48763052
-0.26366168 -0.1140807 0.48407012
-0.23831217 -0.11336347 0.48353326
-0.21418326 -0.11300619 0.48386252
-0.1847913 -0.11251737 0.48284128
-0.161642 -0.11257375 0.48370382
-0.13733208 -0.11314503 0.4836376
-0.11186553 -0.1126621 0.48343873
-0.088772185 -0.11210097 0.48326758
-0.06185662 -0.11312519 0.48296753
-0.037024472 -0.11251744 0.48366648
-0.014028183 -0.11274518 0.482849
0.01385134 -0.11267279 0.48336998
0.037182182 -0.11294661 0.48323318
0.061869033 -0.11195852 0.48322621
0.087502308 -0.11269298 0.48291656
0.1116059 -0.1133298 0.48445022
0.13787906 -0.11242454 0.48392814
0.16283996 -0.11276037 0.48393694
0.18931855 -0.11283902 0.48568496
0.20777878 -0.11318421 0.48805085
-0.2822943 -0.087675698 0.48752776
-0.26344067 -0.088188171 0.48399046
-0.2364779 -0.08865416 0.48295382
-0.21332312 -0.088356763 0.48296452
-0.18621863 -0.088340953 0.48247376
-0.16161318 -0.0870189 0.48322052
-0.13752805 -0.087752305 0.48247522
-0.11304301 -0.08808247 0.4829562
-0.08926589 -0.08801607 0.48299733
-0.062362202 -0.087560512 0.48280108
-0.036424175 -0.087799326 0.48408186
-0.013805495 -0.088172466 0.48294517
0.013424861 -0.087566108 0.48326048
0.037762456 -0.087637506 0.48329902
0.062145427 -0.08759328 0.48301607
0.08618027 -0.088143304 0.48321146
0.10999572 -0.088123702 0.48301187
0.13785997 -0.088278465 0.48301542
0.16286889 -0.087604225 0.48342475
0.18854576 -0.088050328 0.48477253
0.20770361 -0.087473631 0.48746225
-0.28149223 -0.06246154 0.48692733
-0.26308864 -0.061848741 0.48428503
-0.23771441 -0.062443089 0.48317441
-0.21382503 -0.061437581 0.48302296
-0.18599606 -0.061573621 0.48276994
-0.16220886 -0.06138977 0.48353499
-0.13781427 -0.061182003 0.48319879
-0.11356694 -0.062718682 0.48296523
-0.089012206 -0.061889566 0.48340005
-0.061786134 -0.061781414 0.48245111
-0.036626916 -0.062455364 0.48381898
-0.013751221 -0.062231295 0.48290488
0.013740844 -0.061477285 0.48414305
0.037717547 -0.062715515 0.48370147
0.061729055 -0.060766969 0.4836539
0.087644674 -0.061455894 0.48345169
0.1115296 -0.062830843 0.4830716
0.13758743 -0.061497245 0.4839249
0.16291001 -0.061135348 0.48376629
0.18828213 -0.061266802 0.48447311
0.20748585 -0.061318558 0.4885942
-0.2819162 -0.037581977 0.48712736
-0.26438171 -0.037068795 0.48485434
-0.23660789 -0.038569212 0.48408449
-0.21378613 -0.038090236 0.48340932
-0.18721411 -0.036604408 0.48361552
-0.16230938 -0.037898108 0.48366144
-0.13783737 -0.037831057 0.48298603
-0.11274031 -0.038816802 0.48326457
-0.088446394 -0.037010565 0.48340616
-0.062356807 -0.037698194 0.48262298
-0.036227267 -0.037289243 0.48353401
-0.013542362 -0.036485352 0.48218969
0.013361919 -0.037043419 0.48400679
0.037858952 -0.037723746 0.48333678
0.061796818 -0.037276741 0.48301911
0.086073026 -0.03729983 0.48360878
0.11181559 -0.038523108 0.48318663
0.13735059 -0.037756588 0.48303029
0.1621515 -0.037021659 0.48331007
0.18947215 -0.037639931 0.48517269
0.20705637 -0.036796674 0.4883838
-0.2819227 -0.011828201 0.4873887
-0.2635816 -0.012981575 0.48498395
-0.2378353 -0.013465344 0.48308536
-0.21300906 -0.013095102 0.48250651
-0.18661605 -0.011650585 0.48322427
-0.1625865 -0.012575346 0.48369232
-0.13772093 -0.012958823 0.48233256
-0.11265667 -0.013074113 0.48284239
-0.088071913 -0.012311843 0.48375735
-0.062190302 -0.012459214 0.48360747
-0.036336757 -0.01383423 0.48377791
-0.01342825 -0.012840565 0.48250949
0.01273707 -0.012048071 0.4837808
0.036515735 -0.013585439 0.48324779
0.061927136 -0.013279848 0.48304951
0.087234378 -0.012600958 0.48317888
0.11168672 -0.013149602 0.48241681
0.13709143 -0.012805971 0.48364532
0.1627063 -0.012786132 0.48304182
0.18837401 -0.012958886 0.48474166
0.20718588 -0.01257144 0.48801702
-0.28299376 0.012619305 0.48644638
-0.26473624 0.012104051 0.48409444
-0.23677954 0.011875237 0.48377624
-0.21239437 0.01183178 0.48283494
-0.18746725 0.013169631 0.48363489
-0.16219643 0.012397723 0.4835372
-0.13687065 0.011502624 0.48333061
-0.11200526 0.011760811 0.48305011
-0.088521607 0.012002636 0.48382708
-0.062388565 0.011912616 0.48338464
-0.03646905 0.011015765 0.48401433
-0.013704907 0.011953648 0.48248762
0.012293293 0.012319285 0.48309216
0.036586907 0.012717445 0.48317879
0.062977955 0.011940142 0.48341948
0.087871261 0.012979932 0.48416507
0.11228191 0.012181267 0.48353419
0.13677642 0.012194542 0.48351061
0.1621608 0.012708945 0.4835602
0.18976341 0.011772936 0.48437497
0.20691532 0.012774829 0.48816183
-0.28205088 0.036147915 0.48667979
-0.2649259 0.03760438 0.48489019
-0.23704354 0.03719518 0.48390692
-0.21301961 0.036705405 0.4833138
-0.18704022 0.037000578 0.4828696
-0.16224386 0.037058745 0.48384368
-0.13750407 0.036348879 0.48255304
-0.1125197 0.037391782 0.48358715
-0.087960184 0.037085224 0.4833189
-0.062146969 0.036815189 0.4831264
-0.036083229 0.036363851 0.48388633
-0.013077484 0.037793487 0.48334539
0.012594443 0.037508965 0.48414007
0.036157008 0.037866298 0.48346987
0.062870435 0.036742099 0.48262936
0.087905034 0.037551105 0.48314494
0.11252598 0.036775194 0.48302072
0.13741457 0.036269691 0.48345095
0.16234154 0.037212182 0.48301199
0.18971883 0.037318021 0.48534593
0.20673145 0.037419043 0.48827493
-0.28226456 0.062810652 0.48649648
-0.26455009 0.062546507 0.48437333
-0.23650534 0.062065993 0.48276132
-0.2126441 0.061885629 0.48382157
-0.1873862 0.062620722 0.48350486
-0.16221818 0.062940978 0.48332551
-0.13749783 0.061743878 0.48266494
-0.11222598 0.062525652 0.48272628
-0.088280633 0.061765153 0.48347977
-0.062004089 0.061802153 0.48296449
-0.036072433 0.063307196 0.48319679
-0.01302065 0.06294743 0.48236534
0.012531555 0.062279046 0.48360214
0.036530178 0.062106181 0.48346239
0.06229132 0.061159559 0.48328599
0.086841904 0.062591709 0.48346102
0.1122871 0.062510706 0.48306489
0.13722174 0.06212287 0.48354638
0.16132338 0.061771777 0.48296636
0.18988405 0.062288612 0.48542774
0.20657612 0.062666021 0.48806405
-0.30238265 0.09295433 0.48793745
-0.28664872 0.089513108 0.48650837
-0.26235723 0.086671717 0.48462912
-0.23669666 0.087486275 0.48334825
-0.21260364 0.087526962 0.48408195
-0.18714377 0.087791577 0.48344782
-0.16210373 0.087112673 0.48442373
-0.137537 0.086623587 0.48336944
-0.11182258 0.087551631 0.48353758
-0.088219479 0.08741539 0.48368075
-0.062267721 0.086549006 0.48306426
-0.036917865 0.087476313 0.48356554
-0.013027215 0.087410815 0.48294893
0.013391228 0.087251358 0.4841302
0.036665045 0.08848723 0.48379594
0.06269224 0.087176584 0.48357773
0.087275147 0.086632319 0.48395473
0.11271861 0.087672733 0.48355642
0.13786626 0.087378092 0.4829137
0.16193159 0.087267764 0.48313934
0.18774459 0.085293904 0.48427027
0.21164905 0.088615991 0.48653984
0.22699225 0.097993821 0.48371825
-0.30158347 0.109476 0.48494318
-0.2871342 0.11457735 0.48648396
-0.26272571 0.11795032 0.48754221
-0.23824407 0.1093194 0.48709357
-0.21208163 0.10877115 0.48745143
-0.1870368 0.10826324 0.48702547
-0.16254576 0.10865751 0.48714828
-0.13827114 0.10871153 0.48696077
-0.11251709 0.10884876 0.48688042
-0.088232063 0.10877138 0.48751834
-0.062019419 0.10838499 0.48745584
-0.036757987 0.10829054 0.48756769
-0.012804674 0.10789095 0.4877435
0.012554125 0.10882618 0.48805234
0.037398636 0.10898498 0.48738524
0.06339436 0.10886848 0.4873541
0.087662354 0.10864799 0.48822197
0.11227341 0.1082309 0.4874894
0.1378821 0.10869327 0.48759222
0.16235353 0.10904729 0.4875032
0.18749587 0.11704843 0.48722389
0.21246375 0.11403526 0.48693162
0.22667353 0.10455069 0.48322845
-0.28089246 0.1262574 0.48535144
-0.26587227 0.12581529 0.48664314
0.19205084 0.1265254 0.48776966
0.20473704 0.12579378 0.48961091
-0.30201361 -0.37663922 0.51476967
-0.28599703 -0.38363037 0.51180726
-0.26346302 -0.38368493 0.51149869
-0.2389932 -0.37691414 0.51195347
-0.2123903 -0.37622371 0.51226461
-0.18830551 -0.37637162 0.51135123
-0.16131167 -0.37636903 0.51207632
-0.13708249 -0.37647668 0.51051354
-0.11421748 -0.37638772 0.51245838
-0.087865844 -0.37635466 0.51190054
-0.060745433 -0.3763887 0.51060539
-0.037712432 -0.37621361 0.51245016
-0.014678825 -0.37638804 0.51060575
0.01244142 -0.3763552 0.51190084
0.038792495 -0.37638581 0.5124585
0.062306829 -0.37645081 0.51113546
0.086889572 -0.37636849 0.51135236
0.11342653 -0.3763876 0.51162064
0.1369646 -0.37621969 0.51226443
0.1636142 -0.3771328 0.51124257
0.18844247 -0.38436881 0.51261163
0.2108684 -0.38327268 0.51106215
0.22501461 -0.37654614 0.51800174
-0.30204013 -0.36653751 0.51127398
-0.28997514 -0.36205369 0.51227069
-0.25787419 -0.370841 0.50987393
-0.23764871 -0.37295207 0.51228338
-0.21221101 -0.37286207 0.5120151
-0.1872438 -0.37287456 0.51263839
-0.16261153 -0.37287712 0.51148111
-0.13887094 -0.37268022 0.51316899
-0.11274929 -0.37272683 0.51205784
-0.08702191 -0.37282571 0.51269186
-0.06195258 -0.37285981 0.51214319
-0.037414879 -0.37271783 0.51136279
-0.012979932 -0.37280494 0.51202685
0.012068629 -0.37286818 0.51277733
0.037627358 -0.37270874 0.51194978
0.063717127 -0.37268937 0.51304704
0.088023208 -0.37286505 0.51147872
0.11242712 -0.37286258 0.51262355
0.13692786 -0.37287882 0.51214254
0.16245946 -0.37290677 0.51254499
0.1824064 -0.37124065 0.51447278
0.21561866 -0.36250558 0.51246899
0.22649944 -0.36648002 0.5119285
-0.28229991 -0.33866125 0.51106668
-0.27134973 -0.33715877 0.51491618
0.19638331 -0.33892876 0.51028508
0.20736727 -0.33890733 0.51198965
-0.28221789 -0.31252128 0.51154065
-0.27138889 -0.3127774 0.51351798
0.19615465 -0.31157473 0.51355541
0.20713626 -0.31202775 0.51188999
-0.28196943 -0.28632548 0.51184052
-0.2716333 -0.28780946 0.51573068
0.19599317 -0.28723133 0.51214683
0.20713837 -0.28626788 0.51136589
-0.28198817 -0.2623094 0.51091844
-0.27191934 -0.26093337 0.51288134
0.1966394 -0.26262411 0.51250899
0.20715719 -0.26187688 0.51128632
-0.28259939 -0.23859902 0.51078647
-0.27128893 -0.23697309 0.51129466
0.19666666 -0.23647086 0.51158464
0.20731419 -0.23827773 0.51153618
-0.28177413 -0.21273962 0.51064789
-0.27210194 -0.21323027 0.51212096
0.19630611 -0.2133555 0.51288116
0.20698935 -0.21349394 0.51123625
-0.28256404 -0.18653724 0.5112983
-0.27150032 -0.18786168 0.51130712
0.19686927 -0.1869904 0.51323044
0.20743752 -0.1878019 0.51143163
-0.28242195 -0.16135301 0.51208204
-0.2718724 -0.16301887 0.51180238
0.19652221 -0.1621047 0.5134635
0.20782287 -0.16186261 0.51143134
-0.28285131 -0.1378601 0.51183397
-0.27190006 -0.13665053 0.51118219
0.19637947 -0.13900237 0.51276177
0.20736645 -0.13665001 0.51173586
-0.282251 -0.11298122 0.51193774
-0.27157214 -0.11193677 0.51322979
0.19663873 -0.11319311 0.51202202
0.20694806 -0.11331674 0.51139522
-0.28246781 -0.086973943 0.51171178
-0.27187264 -0.0875303 0.51308233
0.19622453 -0.085851237 0.51127887
0.20724925 -0.086871922 0.51156437
-0.28209955 -0.063081823 0.51204497
-0.27181777 -0.062117908 0.51486933
0.19652046 -0.062501781 0.51159763
0.20673867 -0.062508576 0.51200509
-0.28237444 -0.037242368 0.5117833
-0.27182281 -0.037613496 0.51264805
0.19583715 -0.037154712 0.51153457
0.20647313 -0.036584657 0.51253039
-0.28174061 -0.010327933 0.5122624
-0.27141756 -0.014128542 0.51410908
0.19624728 -0.012005523 0.51257628
0.20670263 -0.011063489 0.5124495
-0.28231254 0.012964539 0.51183873
-0.2716544 0.012441627 0.51228833
0.19609247 0.012986092 0.51161999
0.20697628 0.011822453 0.51216358
-0.2820498 0.036259077 0.51195413
-0.27204707 0.039806686 0.51189154
0.19616364 0.038093362 0.5126794
0.2065458 0.0364668 0.51185322
-0.28196281 0.062207412 0.51135081
-0.27183354 0.063343696 0.51157695
0.19662161 0.063282609 0.51333743
0.20657237 0.062513389 0.51214045
-0.3023583 0.094738476 0.51312906
-0.28685656 0.088921018 0.51191157
-0.27293652 0.083307683 0.5116123
-0.11478469 0.098000348 0.52482784
-0.056186974 0.096167624 0.52461678
0.0040494502 0.094753444 0.5245524
0.065207347 0.096923828 0.52498591
0.13205396 0.095723569 0.52496135
0.15416938 0.097037315 0.52478206
0.1965691 0.081280284 0.5127666
0.21094072 0.089829184 0.51240379
0.22716238 0.093173191 0.50838411
-0.30261481 0.10797758 0.51778245
-0.28655797 0.1148379 0.51115108
-0.26309302 0.1178029 0.51181543
-0.23745467 0.1103634 0.5125407
-0.21236059 0.10973332 0.51163608
-0.18775927 0.1097286 0.51230866
-0.16220224 0.10967518 0.51139027
-0.13795079 0.10985062 0.51293433
-0.11192781 0.10976131 0.51144999
-0.087132044 0.10962684 0.51261348
-0.063286699 0.10986362 0.51162535
-0.037709456 0.10983741 0.51277411
-0.012247974 0.1098507 0.51174039
0.012518575 0.1095032 0.51284593
0.037647098 0.10967391 0.51153803
0.063356563 0.10976949 0.51293898
0.087435901 0.10971151 0.51169431
0.11241135 0.10974623 0.51230669
0.13715629 0.1097132 0.51190484
0.16262792 0.11029886 0.51176083
0.18847598 0.11794066 0.51249021
0.21166927 0.1138728 0.5115999
0.22696596 0.10444122 0.51562995
-0.28175971 0.12647387 0.51428258
-0.26717779 0.12623531 0.51011157
0.19413614 0.1269186 0.5123018
0.20494729 0.12610361 0.51302081
-0.30098456 -0.37738949 0.53742081
-0.28642261 -0.38389379 0.53685075
-0.26346961 -0.38327736 0.5368641
-0.24113116 -0.37800118 0.53609836
-0.21317077 -0.3762182 0.53585678
-0.18992089 -0.3763245 0.53421706
-0.1645795 -0.37640572 0.53462738
-0.13891062 -0.37638906 0.53327888
-0.11340129 -0.37641305 0.53442895
-0.086184889 -0.37641829 0.53472513
-0.059489641 -0.37638578 0.53322285
-0.038494412 -0.37632746 0.53503352
-0.015046625 -0.37632808 0.53340274
0.010913215 -0.37639269 0.53570604
0.036915533 -0.37636676 0.53476036
0.062572002 -0.3763752 0.53366679
0.087564692 -0.37645188 0.53355128
0.11312541 -0.37641093 0.53452921
0.13830562 -0.37630987 0.53475451
0.16752064 -0.37795666 0.5350644
0.1880995 -0.38403726 0.53709882
0.21071441 -0.38333428 0.53614247
0.22684577 -0.37602061 0.53876585
-0.30205074 -0.3643274 0.53974789
-0.29014215 -0.36257794 0.53827143
-0.2583937 -0.36479878 0.54049206
-0.23747404 -0.36606571 0.53846174
-0.2120287 -0.36486083 0.53861952
-0.18782741 -0.3656176 0.53788346
-0.16189413 -0.36557773 0.53803056
-0.13711296 -0.36510605 0.53790867
-0.1129157 -0.36525843 0.53777498
-0.087694697 -0.3652958 0.53862613
-0.062893979 -0.36605731 0.53744256
-0.037365317 -0.36549544 0.53879654
-0.013180297 -0.36572728 0.53749788
0.011984318 -0.36622748 0.53804427
0.037890285 -0.36502272 0.53827494
0.062211059 -0.3652164 0.53862947
0.08688429 -0.36607653 0.53782028
0.11217596 -0.36574352 0.53816432
0.13708329 -0.36624426 0.53876829
0.16284052 -0.36605227 0.53803897
0.18183278 -0.36783743 0.53940195
0.21391048 -0.36213335 0.53815544
0.22648025 -0.36580572 0.53877509
-0.2832959 -0.34142682 0.53540409
-0.26720592 -0.33762303 0.53812611
0.19113004 -0.33771259 0.54024106
0.20663723 -0.33871731 0.5356012
-0.28322262 -0.3126823 0.53360951
-0.26714402 -0.31250438 0.53848416
0.1909388 -0.31270754 0.53989536
0.2067682 -0.31249037 0.5355522
-0.28327608 -0.28796339 0.53234959
-0.26732641 -0.28773829 0.53821284
0.19128509 -0.28730091 0.53974348
0.20676383 -0.28589866 0.53513318
-0.28266427 -0.26277432 0.53326041
-0.26672882 -0.26292333 0.53802061
0.19108798 -0.26226151 0.53902566
0.20720033 -0.26201883 0.5349651
-0.28224277 -0.23783834 0.53280038
-0.26727018 -0.23812187 0.53732312
0.19132544 -0.23748471 0.53939533
0.2074438 -0.23953596 0.53497839
-0.28241497 -0.21275279 0.5324384
-0.26679495 -0.21334846 0.5378136
0.1923925 -0.21365696 0.53936583
0.20691474 -0.21323214 0.53501165
-0.28165236 -0.18770781 0.53338957
-0.26702634 -0.18746397 0.53777122
0.1911591 -0.18776706 0.53946185
0.20696425 -0.18697721 0.53562939
-0.28217572 -0.16195664 0.5334543
-0.26695979 -0.16303736 0.53825045
0.19194014 -0.16233574 0.53988475
0.20699565 -0.16154972 0.53547949
-0.28198197 -0.13854247 0.53411382
-0.26670483 -0.13888264 0.53801686
0.19102021 -0.13780694 0.540021
0.20633735 -0.13872302 0.53572106
-0.28252551 -0.11342105 0.5341717
-0.26609963 -0.11350748 0.53801149
0.19074763 -0.11240374 0.5397802
0.20640248 -0.11391678 0.5345974
-0.28336099 -0.087241225 0.53323555
-0.26714498 -0.086891532 0.537938
0.18997222 -0.087433994 0.54013449
0.20655164 -0.088029996 0.53495401
-0.28361464 -0.062729135 0.53355449
-0.26745954 -0.062282648 0.53765655
0.1905079 -0.061880149 0.54038042
0.20644206 -0.062394839 0.53416157
-0.28243983 -0.037970994 0.53343284
-0.26707008 -0.03711151 0.53832227
0.18990032 -0.036938105 0.54129034
0.20634465 -0.03705816 0.53508461
-0.28253916 -0.01343474 0.53400707
-0.26690611 -0.012289203 0.53779912
0.19179858 -0.011263777 0.53948176
0.2059714 -0.010676321 0.53509647
-0.28365806 0.011755154 0.53365374
-0.26724496 0.012307327 0.53738618
0.19152068 0.011659305 0.53969955
0.2070834 0.012660541 0.53549832
-0.28322145 0.037557662 0.53439015
-0.26795527 0.037030526 0.53651977
0.1921314 0.037836023 0.53933853
0.2059385 0.036285933 0.5357334
-0.28385803 0.062422138 0.53304303
-0.26788664 0.062377349 0.53649819
0.19158489 0.061891191 0.53983086
0.20637934 0.062847868 0.53517354
-0.30321312 0.09704712 0.54006517
-0.28712395 0.089579172 0.53726357
-0.26567182 0.086075976 0.53845221
-0.2381119 0.095310993 0.53965431
-0.21237037 0.095262937 0.53946507
-0.1876684 0.095445827 0.53971702
-0.16288584 0.095562346 0.53989923
-0.13651381 0.095578201 0.53988874
-0.11337749 0.095591299 0.53906584
-0.088036612 0.095417976 0.53971785
-0.062121637 0.095707163 0.53963596
-0.037874039 0.095322721 0.54222172
-0.013453187 0.095739588 0.53922123
0.013372581 0.095358834 0.54047137
0.038167521 0.095746614 0.53866607
0.062688939 0.095433332 0.54137385
0.08787445 0.09545815 0.54043126
0.11249322 0.095487751 0.54036057
0.13841587 0.095316514 0.53922462
0.16134885 0.095251977 0.53927684
0.18933405 0.08534959 0.53959799
0.21177377 0.089757226 0.53782821
0.22650956 0.095788479 0.54072326
-0.30303764 0.10438415 0.53831744
-0.28657719 0.11499012 0.5373733
-0.2626251 0.11676517 0.53736895
-0.23729038 0.10925583 0.53532648
-0.21265593 0.10887375 0.53441757
-0.18726999 0.10888917 0.53447342
-0.16289702 0.10889705 0.53381944
-0.13637166 0.10877875 0.53402239
-0.11181781 0.10917075 0.5341695
-0.088103972 0.10837028 0.53428233
-0.061917692 0.10903241 0.533723
-0.037548866 0.10828964 0.53701109
-0.012672041 0.10919727 0.53365177
0.012811851 0.1084251 0.53464758
0.037583806 0.10934832 0.53437227
0.062053982 0.10824981 0.53490758
0.088078067 0.10882042 0.53397757
0.11232279 0.10858807 0.5337975
0.13697553 0.10888072 0.53376907
0.16263027 0.10966214 0.53497756
0.18826532 0.11754352 0.53778255
0.2118458 0.11496548 0.5365535
0.22752397 0.10652602 0.53750825
-0.2787579 0.12624688 0.53887421
-0.26614401 0.12634254 0.53657275
0.18995284 0.12635206 0.53529137
0.20505038 0.12584074 0.53935772
-0.28531155 -0.38136211 0.55878901
-0.26318514 -0.38149786 0.55932033
0.17242083 -0.37828684 0.55851984
0.18746911 -0.3812488 0.56033057
0.20955227 -0.38164601 0.55909288
-0.30177569 -0.36385852 0.55516672
-0.28763095 -0.36177781 0.56024754
-0.26304033 -0.36212263 0.56086785
-0.23777135 -0.35815051 0.56138426
-0.21180053 -0.35665286 0.5611313
-0.18654506 -0.35667175 0.56074554
-0.16324246 -0.35630697 0.56111711
-0.1380336 -0.35686535 0.56167984
-0.11145175 -0.35652348 0.56180298
-0.086852022 -0.35634816 0.56205088
-0.062044445 -0.35671234 0.56125247
-0.037062805 -0.35694784 0.56190807
-0.012324763 -0.35692909 0.56136858
0.012162247 -0.35671952 0.56209332
0.037089959 -0.35698923 0.56183904
0.063645087 -0.35685989 0.5620321
0.088913754 -0.35706809 0.56312335
0.11210699 -0.35709059 0.56162727
0.13719665 -0.35682988 0.56176972
0.16317256 -0.35832635 0.5616231
0.18747579 -0.3616291 0.5624274
0.21163353 -0.36325261 0.56091082
0.22784537 -0.36258903 0.55109942
-0.28261968 -0.34647959 0.55768377
-0.26131341 -0.33788228 0.56165445
-0.23687129 -0.33693743 0.56413507
-0.21314719 -0.33674541 0.56366229
-0.18667291 -0.33664569 0.56389636
-0.16244751 -0.33786145 0.56497473
-0.13735515 -0.33724648 0.56527317
-0.11274041 -0.33716142 0.56452662
-0.088231653 -0.3364456 0.56448621
-0.062707044 -0.33716789 0.5652703
-0.037504215 -0.33748525 0.56548327
-0.013426083 -0.33657023 0.5644936
0.012526577 -0.33762291 0.56508863
0.03832921 -0.33740306 0.56525028
0.062592618 -0.3377023 0.56521487
0.087632455 -0.33700702 0.56592137
0.11282291 -0.33668369 0.56535006
0.13781452 -0.33726043 0.56607014
0.16193911 -0.33750004 0.56622887
0.18685588 -0.33992016 0.56150484
0.20737341 -0.34727141 0.55698651
-0.27543271 -0.32042336 0.55505967
-0.26188761 -0.31258464 0.56077296
-0.23732769 -0.31174046 0.56340498
-0.21263808 -0.31138456 0.56411856
-0.18695962 -0.31239867 0.56349772
-0.16230819 -0.31232861 0.56410706
-0.13785721 -0.31270945 0.56369454
-0.11270543 -0.31205246 0.56526971
-0.088031225 -0.31148785 0.56500113
-0.062896058 -0.31283212 0.56476837
-0.037654348 -0.31193548 0.56468529
-0.013272606 -0.311692 0.5637821
0.012489375 -0.31159472 0.56560671
0.038070109 -0.31244919 0.56537545
0.06288743 -0.31279957 0.56494844
0.087664381 -0.31225523 0.56576294
0.11296687 -0.31153744 0.56615019
0.1378877 -0.31218696 0.56521761
0.16236021 -0.31197271 0.56635672
0.1851511 -0.31228527 0.56186759
-0.2761642 -0.2883487 0.55366772
-0.26108864 -0.28700078 0.56145167
-0.23731326 -0.286872 0.56449521
-0.21351157 -0.28732944 0.56418675
-0.18633541 -0.28683469 0.56429595
-0.16202603 -0.28668258 0.56474859
-0.13724548 -0.28729486 0.56357974
-0.1127054 -0.28770658 0.5646683
-0.087499648 -0.28712812 0.56352931
-0.063151829 -0.28790182 0.56479287
-0.037542086 -0.28775108 0.5655815
-0.013195974 -0.28724959 0.56466043
0.012730701 -0.28713623 0.56526858
0.038917534 -0.28646719 0.5649271
0.06315621 -0.28743425 0.56486416
0.087636471 -0.28637901 0.56607145
0.11277599 -0.28734991 0.56547731
0.13819262 -0.28737053 0.56528342
0.16288714 -0.28686994 0.56671792
0.18600544 -0.28685337 0.56246287
-0.26246271 -0.26210755 0.56052566
-0.23671311 -0.26209512 0.56361431
-0.21288304 -0.26282954 0.56362957
-0.18752086 -0.2616156 0.56360656
-0.16241631 -0.26263198 0.56491584
-0.13761216 -0.26245293 0.56439251
-0.11229844 -0.26336274 0.56477022
-0.088255532 -0.2617895 0.5639596
-0.062157467 -0.26220497 0.56459159
-0.037362464 -0.26151082 0.56572187
-0.01348586 -0.26220509 0.56403869
0.013370399 -0.26277205 0.56510127
0.038113553 -0.26146472 0.56545877
0.063307211 -0.26232514 0.56499356
0.086839817 -0.26253515 0.56576484
0.11267909 -0.26279256 0.56616032
0.13811444 -0.26178715 0.56522483
0.16263156 -0.26238093 0.56642187
0.1856306 -0.26272073 0.56169689
-0.27520102 -0.23794447 0.55077249
-0.26172742 -0.23843019 0.56076545
-0.23727512 -0.23746029 0.56407082
-0.21301599 -0.2376034 0.56427962
-0.18758382 -0.23801765 0.56412673
-0.16211326 -0.23749331 0.56387603
-0.13654658 -0.23754308 0.56309289
-0.11248712 -0.23812778 0.56459439
-0.088098451 -0.23713061 0.5639478
-0.062669374 -0.23758389 0.56473213
-0.037939116 -0.23701645 0.56477076
-0.012811448 -0.23773423 0.56436527
0.012648936 -0.23797482 0.56582928
0.038196892 -0.2381404 0.56563866
0.062236607 -0.23736905 0.56515676
0.087977663 -0.23814893 0.5653258
0.11312835 -0.23737544 0.56520587
0.13818489 -0.23744971 0.56556755
0.16261038 -0.23812744 0.56666189
0.18590945 -0.23832044 0.56192869
-0.27533406 -0.20661683 0.5515601
-0.26249641 -0.21252 0.56098449
-0.23732887 -0.21278243 0.56360549
-0.21295999 -0.21269087 0.56397349
-0.18698965 -0.21279615 0.5631991
-0.16235059 -0.21217015 0.56450295
-0.13660435 -0.21260059 0.56408888
-0.11265007 -0.21281926 0.56477034
-0.087484248 -0.21244372 0.56428069
-0.062722288 -0.21220998 0.56435615
-0.037879054 -0.2122523 0.56508726
-0.014231435 -0.21269494 0.5640564
0.012588734 -0.21341062 0.56537431
0.037498306 -0.21322133 0.56471926
0.062757112 -0.21183787 0.56509298
0.087477326 -0.21252517 0.56574774
0.11240894 -0.21192621 0.56506377
0.13800012 -0.21260184 0.56521046
0.16285734 -0.2130174 0.56696135
0.18534181 -0.21243347 0.56192505
-0.27550948 -0.17697155 0.55739713
-0.26229966 -0.18739969 0.56094611
-0.23810959 -0.18820448 0.56364846
-0.21283574 -0.18760428 0.56383985
-0.1874938 -0.18764512 0.56351614
-0.16196196 -0.18779549 0.56440371
-0.13665503 -0.18760845 0.56383121
-0.11224303 -0.18733172 0.56502253
-0.088489391 -0.18757865 0.56412619
-0.062296193 -0.18742369 0.5648368
-0.038048077 -0.18834412 0.56552017
-0.013337035 -0.18702953 0.56340551
0.011754964 -0.18806864 0.56503099
0.036659572 -0.1877186 0.56447524
0.061167087 -0.18769859 0.5650211
0.087536387 -0.18724924 0.5660584
0.11190112 -0.18779591 0.56446069
0.13795637 -0.18808298 0.56573224
0.16234027 -0.18807493 0.56645596
0.18508303 -0.18771549 0.56205219
-0.27552718 -0.16438346 0.55412757
-0.26249111 -0.16280027 0.56086046
-0.23796007 -0.16270486 0.56375837
-0.21313347 -0.16267782 0.56409758
-0.18711227 -0.16230468 0.56295538
-0.16274536 -0.16274033 0.56455833
-0.13678348 -0.16239358 0.56390166
-0.11253854 -0.16312194 0.56403399
-0.087687083 -0.16336516 0.5642969
-0.061658606 -0.16284601 0.56446731
-0.037679188 -0.16358435 0.56531197
-0.014251419 -0.16288343 0.56445229
0.012714546 -0.16320987 0.56557578
0.037627533 -0.16257246 0.56492394
0.062263597 -0.162843 0.56505322
0.087471969 -0.16268528 0.56530309
0.11197611 -0.1628578 0.5656175
0.13744909 -0.16364257 0.56593144
0.16251698 -0.16348816 0.56673461
0.1853379 -0.16164099 0.56242543
-0.27608591 -0.13939926 0.55500394
-0.26209721 -0.13684453 0.56089091
-0.23847127 -0.13634112 0.56378925
-0.21285957 -0.13727027 0.56429648
-0.18691814 -0.13686228 0.56337076
-0.16226447 -0.13685983 0.56357539
-0.13728747 -0.13678272 0.56384659
-0.11238042 -0.13763525 0.56488121
-0.087778121 -0.1376906 0.56424075
-0.062231958 -0.13742767 0.56493711
-0.037613131 -0.13754463 0.56528115
-0.014182306 -0.13759078 0.56335622
0.011772442 -0.13751318 0.56437469
0.036320854 -0.1370641 0.56482559
0.061900642 -0.13697875 0.5649156
0.08783289 -0.13696273 0.56551564
0.11163316 -0.13806045 0.5650847
0.13767782 -0.13792834 0.5654096
0.16265294 -0.13682528 0.56660444
0.18539338 -0.13708816 0.56146586
-0.27678472 -0.10206497 0.55494046
-0.26166105 -0.11267702 0.56170058
-0.23727882 -0.11207098 0.56290692
-0.21249606 -0.11227254 0.56439286
-0.18610132 -0.11187807 0.56325436
-0.16244671 -0.11244185 0.56406629
-0.13724717 -0.11287438 0.56439072
-0.11254615 -0.11225417 0.56471658
-0.087604791 -0.11196183 0.56452638
-0.061075881 -0.11252496 0.56437474
-0.037824702 -0.11244322 0.56570381
-0.014468613 -0.11203733 0.5642637
0.012265625 -0.11188553 0.5648067
0.037372574 -0.11202245 0.56515974
0.062021438 -0.1125005 0.56530935
0.088439092 -0.11228094 0.56455427
0.11204115 -0.11258166 0.56603599
0.13751048 -0.1129108 0.56583184
0.16160166 -0.11274774 0.56588882
0.18613607 -0.11318744 0.56168723
-0.26202455 -0.087962523 0.56084758
-0.23766582 -0.087708071 0.56324852
-0.2127219 -0.086502515 0.56482863
-0.1866488 -0.086845286 0.56292135
-0.16294026 -0.088288985 0.56392711
-0.13696885 -0.08731585 0.56432533
-0.11308958 -0.087314315 0.56442612
-0.087485649 -0.086658858 0.56371808
-0.061723441 -0.086914353 0.56419021
-0.03783847 -0.087929294 0.56518853
-0.013951843 -0.087373577 0.56342387
0.012302584 -0.086709484 0.56414801
0.036366265 -0.086783595 0.56540108
0.06177612 -0.087705746 0.56487095
0.087984748 -0.087990366 0.5647223
0.11150321 -0.086359642 0.56537575
0.13783062 -0.08805149 0.56439847
0.1625912 -0.088051438 0.56648177
0.18596917 -0.08775501 0.56197906
0.20082219 -0.077624202 0.55483532
-0.26113042 -0.061938036 0.56095052
-0.23818234 -0.062700987 0.56269282
-0.21361814 -0.061619781 0.56394178
-0.18670063 -0.061306637 0.56272143
-0.16251378 -0.062414762 0.56390941
-0.13644259 -0.062957309 0.56393152
-0.11279558 -0.061861459 0.56363922
-0.088136882 -0.061501723 0.56395602
-0.061653357 -0.062162593 0.56359649
-0.03796218 -0.062635548 0.565193
-0.01461426 -0.061998758 0.56406909
0.012321862 -0.062398531 0.56471539
0.037000772 -0.06198803 0.56521988
0.060705207 -0.062241957 0.56476599
0.087259077 -0.062216241 0.56381238
0.11227459 -0.061710618 0.5649997
0.13805629 -0.062743872 0.56495297
0.16128264 -0.061749548 0.56568366
0.18553747 -0.06256929 0.56175673
-0.27555984 -0.034044981 0.56345612
-0.26100132 -0.037211593 0.56149638
-0.23675179 -0.037885174 0.56440985
-0.21261744 -0.037515 0.56478196
-0.18683034 -0.037812926 0.56365162
-0.16231839 -0.037930518 0.56463176
-0.13678636 -0.038144477 0.56525314
-0.11259616 -0.036959004 0.56467724
-0.086818025 -0.038204886 0.56390548
-0.061524212 -0.037951626 0.5645228
-0.037788067 -0.037592012 0.56556547
-0.01380239 -0.037451524 0.56458861
0.012676489 -0.037452083 0.564161
0.035920538 -0.037044838 0.56519985
0.060576044 -0.037774622 0.56510079
0.086458214 -0.037717674 0.5635131
0.11235233 -0.038007822 0.56540179
0.13727146 -0.037961148 0.56442612
0.16126226 -0.037224371 0.56572908
0.18589862 -0.03704812 0.56200618
0.20075704 -0.037550092 0.55787778
-0.27590176 -0.015501797 0.55812639
-0.26148564 -0.013461117 0.56072193
-0.23725332 -0.012755938 0.56393445
-0.21275012 -0.012912124 0.56399745
-0.18723953 -0.012041278 0.56367159
-0.16189615 -0.012671185 0.56361961
-0.13786681 -0.013276843 0.56465626
-0.11364438 -0.012104419 0.5646044
-0.087770909 -0.012910455 0.56426823
-0.061329283 -0.012784737 0.56426382
-0.038484387 -0.012476709 0.56529433
-0.014061862 -0.012725478 0.56297183
0.01202803 -0.012369483 0.56409132
0.03666345 -0.012693976 0.56463623
0.060735665 -0.01280718 0.5650987
0.087546244 -0.011807332 0.56375855
0.11196094 -0.013306988 0.56543976
0.13817117 -0.012798458 0.56472081
0.16131684 -0.013146693 0.56567609
0.18482791 -0.012613199 0.5609802
-0.27686828 0.022842348 0.55658364
-0.26147652 0.012388244 0.56018478
-0.23766044 0.012039608 0.56439209
-0.21331671 0.012499021 0.56353182
-0.18760014 0.013133479 0.56368148
-0.16238618 0.012807896 0.56290364
-0.13679534 0.013202623 0.56478703
-0.11289259 0.012884899 0.5636825
-0.087124027 0.012203109 0.56422758
-0.06152555 0.013213815 0.56365615
-0.03748529 0.012365278 0.56536555
-0.013915512 0.012481824 0.56352782
0.012269469 0.012582759 0.5638625
0.036579587 0.01245825 0.56516629
0.060993198 0.012654302 0.56490147
0.087422855 0.012837527 0.56420398
0.11272179 0.012276556 0.56528586
0.1367317 0.012291242 0.56442744
0.16095547 0.012201386 0.56556755
0.18511255 0.011180433 0.56094223
-0.27572358 0.036485344 0.55558324
-0.26166856 0.037407037 0.56033057
-0.23763297 0.037175369 0.56463259
-0.21333027 0.037391279 0.56341827
-0.18787828 0.038167953 0.56375706
-0.16236323 0.037458073 0.56344086
-0.13773997 0.03738796 0.56466484
-0.11311733 0.038110394 0.56370103
-0.086805828 0.037131313 0.56354904
-0.06109643 0.037354164 0.56431854
-0.038137455 0.037364617 0.5650394
-0.013803837 0.037163377 0.56301373
0.011421924 0.037558138 0.56426543
0.036464293 0.037630364 0.56411576
0.061367489 0.037902575 0.56457937
0.086556301 0.037261691 0.56325352
0.1119303 0.036738921 0.56540757
0.138285 0.037433285 0.56406885
0.16215236 0.037404902 0.56526625
0.18552028 0.03676153 0.56100619
-0.27690127 0.063551009 0.55218464
-0.262025 0.062682018 0.56051302
-0.23779039 0.062738694 0.56428868
-0.2122428 0.062421631 0.56375319
-0.18758705 0.062168531 0.56396961
-0.16155127 0.062318824 0.56269419
-0.13747695 0.063309252 0.56385106
-0.11282152 0.062073179 0.5633924
-0.086767457 0.062798068 0.5643822
-0.062088862 0.063294962 0.56312132
-0.038694039 0.063482478 0.56526858
-0.013493205 0.062792942 0.5635854
0.012255891 0.062794492 0.56501168
0.036890227 0.063007474 0.56485271
0.061830081 0.062584579 0.56502914
0.087566853 0.061701454 0.5637936
0.11304484 0.061823368 0.56490296
0.13843556 0.063061595 0.56434494
0.16276057 0.0629237 0.56531644
0.18584847 0.061930586 0.56089669
-0.30266505 0.092999697 0.55992287
-0.28717396 0.090104178 0.56281912
-0.26270819 0.08747758 0.56210673
-0.23640056 0.088270418 0.56210172
-0.2119748 0.088866174 0.56230307
-0.18751362 0.08778996 0.5615378
-0.16205174 0.088300198 0.56156057
-0.13743335 0.089007743 0.56236279
-0.11245745 0.087462731 0.56173342
-0.087270863 0.088172629 0.56243414
-0.062270556 0.088999912 0.56205153
-0.037767742 0.08902967 0.56266803
-0.013151539 0.088644318 0.56112438
0.011811532 0.0880946 0.56213063
0.036728442 0.088402517 0.56218708
0.061814528 0.087657206 0.56261992
0.087689348 0.088234685 0.56177962
0.11256446 0.088767275 0.56255084
0.1375365 0.08828672 0.56139535
0.16174124 0.088523202 0.56171936
0.18585697 0.086330943 0.56234747
0.21230422 0.09167663 0.56246561
0.22855306 0.096600391 0.5657813
-0.30191019 0.10390241 0.5613246
-0.28762251 0.11405647 0.56312424
-0.26407525 0.11714076 0.56247348
-0.24752975 0.11372779 0.56182742
0.16923119 0.10891847 0.56329733
0.18847185 0.11738094 0.56256771
0.21171616 0.11396638 0.56216604
0.22823249 0.10312203 0.56345814
-0.28252307 0.12602638 0.55825728
-0.26928452 0.12658741 0.56496978
0.19106133 0.1257557 0.5640654
0.20402068 0.1265291 0.56630951
-0.22858839 -0.35167488 0.57519889
-0.19018625 -0.35169125 0.5758943
-0.15702647 -0.35179207 0.57621443
-0.1337679 -0.35446876 0.57513696
-0.11438338 -0.35240126 0.57566357
-0.095278867 -0.35336095 0.57506049
-0.072936773 -0.35028249 0.57599533
-0.03992793 -0.3514412 0.57690704
0.017050713 -0.35217679 0.5762769
0.063753106 -0.35216621 0.57577461
0.080900088 -0.35393995 0.57557106
0.13649224 -0.35232639 0.57517767
-0.25689223 -0.33674526 0.57592833
-0.23416121 -0.34001186 0.57647824
-0.21231109 -0.33615133 0.57597309
-0.18758012 -0.3367328 0.5762977
-0.16686377 -0.33730108 0.57626581
-0.13709655 -0.33636957 0.57632023
-0.11365727 -0.33815333 0.57614309
-0.085760839 -0.33873102 0.57614446
-0.060454324 -0.33596608 0.57609862
-0.040156703 -0.33898196 0.57600224
-0.013991365 -0.33876079 0.57603759
0.010598678 -0.33598655 0.57589519
0.041848492 -0.33707747 0.57575846
0.063554958 -0.33496866 0.57581377
0.086954072 -0.3369824 0.57569784
0.11031082 -0.33797514 0.57578939
0.13644432 -0.33601451 0.57584375
0.15826209 -0.34050322 0.57559711
0.17963615 -0.33554262 0.57555676
-0.2578505 -0.31158054 0.57557344
-0.23660895 -0.31503186 0.57653713
-0.21369268 -0.31124914 0.57583499
-0.18673539 -0.31099153 0.57640707
-0.15838496 -0.3117806 0.57630593
-0.13179904 -0.30978456 0.57642305
-0.11131561 -0.31580219 0.5763343
-0.085806146 -0.31469792 0.57620728
-0.059026223 -0.31199238 0.57609081
-0.037515204 -0.31350431 0.57622933
-0.011724368 -0.31091297 0.57604003
0.012925916 -0.31129298 0.57598203
0.042996686 -0.31185606 0.57587582
0.060477141 -0.31233323 0.57563299
0.082261711 -0.31175533 0.57578814
0.11181356 -0.31311983 0.57596618
0.13931467 -0.31401721 0.57582098
0.15719742 -0.31312105 0.57568669
0.17901111 -0.31648153 0.57538158
-0.25593087 -0.2889542 0.57608742
-0.23535651 -0.28765571 0.57662439
-0.21095483 -0.28706312 0.57618791
-0.18606274 -0.28755608 0.57636899
-0.16227625 -0.28645241 0.576222
-0.133275 -0.2874485 0.57645148
-0.11097556 -0.28826839 0.57620984
-0.086033441 -0.29029137 0.57609451
-0.06369897 -0.28570336 0.57630026
-0.037326828 -0.2873337 0.57635206
-0.010970239 -0.28701013 0.57613891
0.012211108 -0.28539678 0.5759775
0.041864689 -0.28704652 0.57594877
0.062592611 -0.28598034 0.57580364
0.084618725 -0.28657877 0.57568562
0.11069009 -0.28718933 0.5761686
0.13838203 -0.28783321 0.57611799
0.1588721 -0.28887039 0.57568562
-0.25749642 -0.26463032 0.57579124
-0.23713887 -0.26137429 0.57669926
-0.20812558 -0.26434693 0.57629764
-0.18546624 -0.26398259 0.57637662
-0.162205 -0.26273674 0.57650226
-0.13310972 -0.26152593 0.57647628
-0.10944219 -0.26337007 0.57639354
-0.085099116 -0.26281303 0.57615966
-0.059235334 -0.26207066 0.57590097
-0.041664377 -0.26259354 0.57653731
-0.012989713 -0.26200721 0.57633674
0.01189475 -0.26191747 0.57596868
0.04299482 -0.26212293 0.57589978
0.060719021 -0.26311406 0.57583803
0.083457798 -0.26190433 0.57606429
0.10978213 -0.26074192 0.57588696
0.13855861 -0.26102531 0.57620317
0.16137549 -0.26252598 0.57585257
-0.25713518 -0.23859575 0.57602173
-0.23987038 -0.23641868 0.57678586
-0.21100265 -0.23911746 0.5765028
-0.18528396 -0.23945363 0.57661659
-0.16156051 -0.23650083 0.57620138
-0.13641606 -0.23885082 0.57656384
-0.1124819 -0.23933849 0.57648635
-0.08612784 -0.23678814 0.57625878
-0.058148231 -0.23531939 0.57592648
-0.038398195 -0.23924233 0.57621634
-0.010193444 -0.23660392 0.57637191
0.015231853 -0.23842636 0.57623816
0.043768015 -0.23764974 0.5761317
0.061924212 -0.2389584 0.5758267
0.084531493 -0.23867854 0.57579404
0.11231852 -0.2369712 0.57585263
0.13885599 -0.23191337 0.57652444
0.1599606 -0.23626548 0.5760563
0.17724855 -0.23446421 0.57522911
-0.25672093 -0.21833992 0.57577401
-0.23820169 -0.21121998 0.57665712
-0.21069796 -0.21261089 0.57666284
-0.18635865 -0.21326752 0.57677567
-0.16170293 -0.21280712 0.57636029
-0.13323563 -0.21606526 0.57692784
-0.11218856 -0.21319509 0.57648319
-0.08573959 -0.21254289 0.57626927
-0.05651151 -0.21216671 0.5759722
-0.038589384 -0.21405062 0.57635409
-0.0096221222 -0.21109617 0.57625359
0.015212235 -0.21391073 0.57619196
0.042637363 -0.21210578 0.57612467
0.061719604 -0.21186166 0.57612479
0.083780237 -0.21287419 0.57601488
0.11423348 -0.21162422 0.57595628
0.14166252 -0.21074285 0.57617599
0.16213664 -0.21421202 0.57605594
-0.25579962 -0.18807727 0.57597697
-0.23986188 -0.18847904 0.57693982
-0.21371204 -0.18811233 0.57667643
-0.18748328 -0.18868305 0.57650596
-0.16160758 -0.1875674 0.57631689
-0.13695623 -0.18944934 0.57677191
-0.11231381 -0.18688224 0.57654136
-0.085690893 -0.18838012 0.57660455
-0.056358449 -0.186655 0.57616746
-0.038206432 -0.18801044 0.57637745
-0.0069760638 -0.18922155 0.57617295
0.01255066 -0.18753432 0.57605022
0.040645275 -0.18884686 0.57619572
0.06051822 -0.18801145 0.57583255
0.084923029 -0.18722589 0.57638961
0.11328501 -0.18458588 0.57598728
0.14147508 -0.18857473 0.57604796
0.16154291 -0.18951884 0.57614434
-0.25675038 -0.16177776 0.57559144
-0.24098058 -0.16375636 0.57715887
-0.21012984 -0.16212331 0.57691145
-0.18497412 -0.16406298 0.57667249
-0.16160072 -0.16435657 0.57650226
-0.13667649 -0.16451012 0.57680726
-0.11116404 -0.16196387 0.57652217
-0.084871896 -0.16317245 0.5767715
-0.057184275 -0.16177453 0.57613063
-0.038821775 -0.16270772 0.57671845
-0.0089909546 -0.16397338 0.57638109
0.013396051 -0.16368967 0.57627946
0.040370069 -0.16362222 0.57583612
0.059533603 -0.16563311 0.57593757
0.082510434 -0.16185509 0.57615608
0.1137788 -0.15952013 0.57607466
0.14308092 -0.16235243 0.57626432
0.16580716 -0.16262101 0.57607341
0.17608047 -0.16666061 0.5763092
-0.25555721 -0.13664147 0.57658565
-0.23888063 -0.13794121 0.57683414
-0.21450703 -0.1355609 0.57659769
-0.18591198 -0.13935129 0.57661861
-0.16264033 -0.13957492 0.57657361
-0.13593525 -0.13903174 0.57667482
-0.11178808 -0.13903588 0.57659024
-0.085744508 -0.13733754 0.57675844
-0.055722475 -0.13557906 0.57632518
-0.034764059 -0.13847223 0.57642287
-0.008194983 -0.13702402 0.57657129
0.012311075 -0.13787864 0.57624054
0.039179046 -0.13979781 0.57627308
0.060951162 -0.13638076 0.57593685
0.086113051 -0.13682751 0.57619518
0.11389221 -0.13744102 0.57591814
0.14171171 -0.13752933 0.5760783
0.16509332 -0.13741145 0.57643771
-0.25532177 -0.11453089 0.57677221
-0.24029861 -0.11095734 0.57689059
-0.21449776 -0.11259429 0.57716793
-0.18793316 -0.11266579 0.57678849
-0.16315486 -0.11533591 0.5766663
-0.13661686 -0.11492907 0.57678676
-0.10994279 -0.11345129 0.57671398
-0.084828757 -0.11107174 0.57696408
-0.056625903 -0.11136726 0.57620889
-0.040504359 -0.11279372 0.57677692
-0.010083196 -0.11296467 0.57660753
0.012230213 -0.11325145 0.5760411
0.040257063 -0.11189671 0.57608372
0.057487052 -0.11445858 0.57619673
0.086663313 -0.11174483 0.5762201
0.11396757 -0.11258996 0.57635814
0.14109637 -0.11301316 0.57609683
0.16746239 -0.11333895 0.57610744
-0.25793773 -0.087914236 0.57647663
-0.23905723 -0.088384435 0.57691967
-0.21525125 -0.087718412 0.57674974
-0.18703458 -0.088035211 0.57684624
-0.16387984 -0.089672603 0.57702494
-0.13435157 -0.086802989 0.57687443
-0.11126279 -0.08864326 0.57680458
-0.085107811 -0.089587331 0.57663023
-0.056350514 -0.08713267 0.57642728
-0.03824624 -0.086305022 0.57695526
-0.0092770495 -0.087307945 0.57657439
0.011203134 -0.088571407 0.57628298
0.039860185 -0.086571418 0.5764789
0.057544939 -0.088226348 0.57590342
0.084714204 -0.086984418 0.57627708
0.11088386 -0.086416639 0.57628447
0.1411631 -0.086898565 0.57585555
0.16641641 -0.088164598 0.57626766
0.18682766 -0.094919324 0.57514828
-0.25386888 -0.062475674 0.57776731
-0.23952982 -0.061016075 0.57733607
-0.21641974 -0.064534523 0.57669246
-0.18906951 -0.064958468 0.57736874
-0.16555484 -0.063615605 0.57703841
-0.13651755 -0.065225504 0.57722563
-0.1125731 -0.065348051 0.57666838
-0.087515816 -0.065534532 0.57701927
-0.057687905 -0.06185627 0.57623142
-0.03922471 -0.059074555 0.57699209
-0.0091005964 -0.062854037 0.5766089
0.011319254 -0.059773229 0.57618898
0.036072016 -0.062771574 0.57633936
0.057458725 -0.063235365 0.57613331
0.084615946 -0.0627857 0.5762555
0.11333138 -0.059729863 0.57649636
0.1381764 -0.062783793 0.57581747
0.16477436 -0.062465213 0.57638985
-0.25758946 -0.037909098 0.57671344
-0.2408068 -0.034601685 0.5773313
-0.21451853 -0.038583077 0.57655674
-0.19027448 -0.038464256 0.57722092
-0.16592981 -0.038345337 0.576693
-0.13780655 -0.041412778 0.5771656
-0.11317892 -0.041185524 0.57701451
-0.086275183 -0.039605021 0.57716161
-0.054376874 -0.038258836 0.57642442
-0.034858458 -0.035908602 0.57674205
-0.010583844 -0.037363425 0.57678789
0.011618011 -0.034832742 0.57642531
0.038812932 -0.039682098 0.57670301
0.057872325 -0.038902488 0.57594818
0.085039146 -0.038991831 0.57645762
0.11028175 -0.036047649 0.57619631
0.14100726 -0.04042716 0.57601327
0.16487859 -0.036187291 0.57619542
0.17678919 -0.033104479 0.57824188
-0.25634044 -0.011224834 0.57616639
-0.24039306 -0.010356707 0.5774886
-0.21253452 -0.012725425 0.57721817
-0.18550225 -0.0092034275 0.57728469
-0.16545753 -0.013337171 0.57706696
-0.13982369 -0.012518262 0.57732195
-0.11279563 -0.015102946 0.57730222
-0.087451227 -0.014148843 0.57680947
-0.05593564 -0.014500837 0.57679403
-0.036786992 -0.013553823 0.57660675
-0.009797141 -0.012390524 0.57720137
0.01065003 -0.012518569 0.57594353
0.03796773 -0.013828339 0.57677758
0.057476915 -0.014329612 0.57614422
0.082341932 -0.014636195 0.57643616
0.10976026 -0.013821561 0.5766651
0.1394802 -0.014230957 0.57614255
0.16708075 -0.012839907 0.57590568
0.17625612 -0.016882598 0.57715839
-0.2573961 0.01339747 0.57659054
-0.23676066 0.014829718 0.5775429
-0.21094459 0.012573215 0.57706374
-0.1851245 0.012657703 0.57642543
-0.16612606 0.012645287 0.5773629
-0.13400106 0.015847081 0.57729739
-0.1083896 0.012636247 0.57693142
-0.087516904 0.011223882 0.57762498
-0.056343824 0.011846737 0.57699567
-0.036065437 0.01225546 0.57723373
-0.0093000559 0.012118769 0.57656294
0.011902829 0.0095253689 0.57659513
0.037848514 0.011311683 0.57687968
0.055993836 0.013593433 0.57614893
0.0827507 0.010396753 0.57661253
0.11169755 0.01044338 0.57662702
0.14018151 0.014375433 0.57629228
0.16255504 0.0088234451 0.57615572
0.17742561 0.0077496567 0.57722449
-0.25532979 0.037308209 0.57627994
-0.23885733 0.038159247 0.57772988
-0.2107718 0.038967874 0.57741481
-0.1865931 0.037594624 0.57728863
-0.1650634 0.036886334 0.57686716
-0.13940078 0.04084412 0.57743073
-0.1102696 0.041003987 0.57750869
-0.087810278 0.037700657 0.57718748
-0.058021475 0.037445635 0.57679194
-0.032766268 0.037517887 0.57701159
-0.0088770259 0.03783432 0.577236
0.011554131 0.034841139 0.57663292
0.033820331 0.03721587 0.57690024
0.057702869 0.038403962 0.57657814
0.082947537 0.036997482 0.57671535
0.11157453 0.038543146 0.57678574
0.13829885 0.037942424 0.57644945
0.16451536 0.036265306 0.57603985
0.1796733 0.039146863 0.5763787
-0.25407031 0.06307552 0.57664996
-0.23589987 0.063749455 0.57824171
-0.21314067 0.06484852 0.57707018
-0.1854887 0.063100129 0.57716095
-0.16331644 0.062572114 0.57691449
-0.13548207 0.065084241 0.57736677
-0.10898045 0.0665574 0.5772379
-0.087073989 0.062363561 0.57730728
-0.057407219 0.063465834 0.57726884
-0.03650346 0.063602187 0.57716125
-0.010914127 0.063234672 0.5772326
0.012015866 0.062232416 0.57634908
0.037406087 0.062209621 0.57697302
0.055550095 0.059743602 0.576159
0.084110938 0.0664602 0.5770303
0.11262692 0.064632207 0.57657677
0.1379247 0.063396975 0.57598865
0.16062613 0.061859049 0.57687628
0.1786733 0.064277336 0.57565665
-0.30349231 0.095186807 0.58805251
-0.28699276 0.089510195 0.58739918
-0.26483721 0.09135399 0.58769929
-0.24017628 0.082667135 0.57609105
-0.21263371 0.08459907 0.57735807
-0.18726189 0.081561469 0.57650733
-0.16507809 0.08618249 0.57617873
-0.13605808 0.085210212 0.57690239
-0.10968982 0.084039226 0.57641393
-0.088635355 0.081709653 0.57739097
-0.056016609 0.079573274 0.57667506
-0.043352365 0.083355628 0.57682091
-0.011409682 0.085505925 0.5765124
0.012302762 0.080446362 0.57658875
0.03898412 0.083579443 0.57695848
0.057728268 0.081092596 0.57620418
0.084317312 0.083960265 0.57607394
0.11250816 0.082140908 0.57671183
0.13910988 0.080500208 0.57612199
0.1693351 0.091062047 0.58718783
0.18748324 0.088792346 0.58697754
0.21196294 0.090884797 0.58723265
0.22665039 0.096097648 0.58698738
-0.30133945 0.10690857 0.58917934
-0.28710416 0.1145016 0.58793688
-0.26278588 0.1154538 0.58721244
-0.24775393 0.11160808 0.58796817
0.17043212 0.1103392 0.58814418
0.18768334 0.11743397 0.5878728
0.21164402 0.1137425 0.58785105
0.22634132 0.10921133 0.58351749
-0.28019604 0.12605885 0.58836818
-0.2681855 0.12656187 0.58830547
0.19271635 0.12618043 0.58743697
0.20530973 0.12629458 0.58647174
-0.30195194 0.095415644 0.61841697
-0.28691882 0.089684054 0.61186254
