# .PCD v0.7 - Point Cloud Data file format
VERSION 0.7
FIELDS x y z
SIZE 4 4 4
TYPE F F F
COUNT 1 1 1
WIDTH 1382
HEIGHT 1
VIEWPOINT 0 0 0 1 0 0 0
POINTS 1382
DATA ascii
-0.10878347 -0.15081111 0.42418301
-0.084281765 -0.1529792 0.42057419
-0.057387739 -0.15313873 0.42130464
-0.040731974 -0.1541563 0.4211494
-0.011835532 -0.1553435 0.42188355
0.014601054 -0.15436785 0.42147824
0.037546936 -0.15637869 0.42316297
0.060804747 -0.15419689 0.42232123
0.091507904 -0.15293764 0.42248088
-0.17987087 -0.12734717 0.42201635
-0.15901111 -0.1323663 0.42215398
-0.13790035 -0.13592741 0.42187265
-0.11412933 -0.13828792 0.42171258
-0.087873161 -0.13675487 0.42174014
-0.062668681 -0.13743842 0.42181066
-0.036007404 -0.13757578 0.42208022
-0.012815268 -0.13634175 0.42180839
0.014342301 -0.13722493 0.42148629
0.037691761 -0.13818324 0.42156065
0.061190013 -0.13860519 0.42209494
0.088714309 -0.13848144 0.42160344
0.1127275 -0.13577069 0.4217349
0.13682722 -0.13423063 0.42201126
0.16023645 -0.13099949 0.42289314
0.1814055 -0.12609124 0.42168942
-0.2013347 -0.10890208 0.42057082
-0.18295629 -0.10957902 0.41477311
-0.16213293 -0.1121062 0.4147442
-0.13834535 -0.1104442 0.4135659
-0.11273548 -0.11233122 0.42138669
-0.085733205 -0.11141849 0.42185265
-0.061499115 -0.11314816 0.42131045
-0.035891853 -0.11147937 0.4223693
-0.012229429 -0.11267823 0.42187107
0.014557121 -0.11180972 0.42180875
0.037369318 -0.11190657 0.42132896
0.061597764 -0.11265965 0.42201629
0.088217057 -0.11166783 0.42223543
0.11253267 -0.11198962 0.42090818
0.13967104 -0.10956208 0.41580954
0.16140747 -0.10690285 0.41293526
0.1844653 -0.11211091 0.42202753
0.20424131 -0.10516098 0.42114973
-0.20736261 -0.087227285 0.42243028
-0.18364292 -0.087511525 0.41455883
-0.17251371 -0.087258227 0.41495782
-0.13174546 -0.087805569 0.41059521
-0.11862932 -0.087441429 0.41511101
-0.085766964 -0.086661004 0.42228916
-0.063303813 -0.088723049 0.42172691
-0.037073113 -0.08586859 0.42197296
-0.012991971 -0.087367482 0.42159081
0.014852736 -0.085679084 0.42143768
0.037161097 -0.08617992 0.42183074
0.061644085 -0.085269444 0.42195332
0.086779207 -0.086250141 0.42204496
0.11402115 -0.087334923 0.41784751
0.13401517 -0.090319276 0.41426459
0.16861407 -0.090659626 0.41206551
0.18182909 -0.086594768 0.41420698
0.20664731 -0.0858123 0.42088547
-0.20804943 -0.060808398 0.42226017
-0.1840369 -0.063551977 0.41920489
-0.16228971 -0.064675666 0.41296116
-0.138248 -0.064352408 0.41358712
-0.11187847 -0.062325157 0.42106223
-0.087984316 -0.060867649 0.42175558
-0.063046947 -0.063617945 0.42137846
-0.037316129 -0.060519919 0.42206487
-0.013409237 -0.061405692 0.42168573
0.015288207 -0.061648868 0.42193294
0.036340028 -0.062394485 0.42155838
0.061915196 -0.061408799 0.42174384
0.087596051 -0.060872037 0.42198032
0.11397903 -0.062817797 0.41793856
0.13673367 -0.059537999 0.41202736
0.16433561 -0.061281584 0.41229978
0.18188286 -0.066093266 0.41499144
0.21088099 -0.060610037 0.42147744
-0.22706287 -0.03856802 0.42267975
-0.21052518 -0.036937725 0.42220858
-0.18524182 -0.037264042 0.42175397
-0.16160066 -0.037809577 0.42208222
-0.13887364 -0.036127225 0.42227951
-0.11299866 -0.036966369 0.42191726
-0.090216041 -0.035979167 0.4219107
-0.064085849 -0.037319701 0.42175147
-0.036301639 -0.038035352 0.42219844
-0.011798725 -0.037238918 0.4215883
0.015643431 -0.037804566 0.42159483
0.038711354 -0.036903132 0.42165995
0.061908927 -0.038408387 0.42171508
0.08613614 -0.037585553 0.42193934
0.11157276 -0.037065275 0.42165893
0.1388403 -0.038917035 0.41959128
0.15907611 -0.040586375 0.42019284
0.18844864 -0.036463179 0.42206505
0.21176299 -0.035712454 0.42179236
-0.22793625 -0.010682791 0.42305261
-0.21147852 -0.012847744 0.42218152
-0.18705317 -0.012310811 0.42144769
-0.16371866 -0.01225328 0.42241144
-0.13885468 -0.01138288 0.4220179
-0.1120133 -0.013230229 0.42229956
-0.088644966 -0.012538148 0.42183819
-0.063551053 -0.012560173 0.42153525
-0.0374377 -0.014567067 0.42236087
-0.012929382 -0.013399756 0.421864
0.015635952 -0.012746398 0.42169532
0.038288433 -0.013406386 0.42189774
0.062271573 -0.013913083 0.42180622
0.088471062 -0.013157463 0.42172495
0.11260837 -0.014268144 0.42145535
0.13756414 -0.012027822 0.42108807
0.16232955 -0.0109779 0.4220635
0.18908335 -0.01222969 0.4215129
0.21076141 -0.011627917 0.42127475
0.22781055 -0.019514689 0.42400122
-0.23022646 0.014331788 0.42257813
-0.21248685 0.012120067 0.42224964
-0.18764929 0.012650763 0.42176977
-0.16176619 0.012161773 0.42193753
-0.13789049 0.011470416 0.42189723
-0.11383618 0.01140279 0.42183131
-0.089093216 0.012188254 0.42189217
-0.064073846 0.011448837 0.42169514
-0.037520815 0.0125518 0.42196149
-0.012832512 0.011792499 0.42174765
0.015643682 0.011443973 0.42160425
0.038281146 0.011218456 0.42150423
0.063282639 0.011806779 0.42228279
0.086283535 0.012761738 0.42140883
0.1120676 0.011095463 0.42157334
0.13505308 0.01291491 0.42140034
0.16121942 0.014024028 0.42194304
0.18801008 0.013135811 0.4215588
0.21208717 0.013352859 0.4215546
0.22705342 0.010690868 0.42401269
-0.2303201 0.040268339 0.4229638
-0.21105351 0.036929023 0.42179143
-0.186949 0.03659549 0.42136288
-0.1624621 0.038756784 0.42184904
-0.13751452 0.036440451 0.42165342
-0.11285378 0.038179182 0.42224014
-0.089469738 0.036025032 0.42156923
-0.063702017 0.037772469 0.42154369
-0.036083534 0.038162258 0.42215613
-0.013029292 0.0374741 0.42144978
0.015553938 0.039015494 0.42140079
0.037215497 0.037414402 0.42132238
0.06261877 0.038322847 0.42202598
0.086975157 0.038335282 0.42185119
0.11334553 0.036523599 0.42166403
0.13812929 0.037197083 0.42134735
0.16146466 0.037979357 0.42185074
0.18878782 0.039014805 0.42130351
0.2116721 0.039829247 0.42135492
-0.23070063 0.062859774 0.42280731
-0.21057639 0.063873239 0.42177558
-0.1865034 0.061776549 0.4218283
-0.16205947 0.062889136 0.42210501
-0.13777444 0.063077427 0.42146221
-0.11430529 0.063540652 0.42157
-0.088084906 0.062163152 0.42138633
-0.063595012 0.063622743 0.42181164
-0.035466626 0.064142659 0.4217335
-0.01163499 0.062991075 0.42160231
0.015586583 0.061924644 0.42157668
0.03812382 0.063772209 0.4213514
0.061746076 0.064753324 0.4215889
0.087297693 0.061379168 0.42141464
0.1133811 0.062757023 0.42221233
0.13706236 0.062211897 0.4211975
0.16200083 0.06223904 0.42204639
0.18861453 0.064096622 0.42146412
0.21304907 0.06224227 0.42162159
-0.22958285 0.088085167 0.42335567
-0.21153982 0.087632835 0.4221009
-0.18650189 0.088262327 0.42128333
-0.16237958 0.087032385 0.42156219
-0.13940834 0.088230476 0.42168128
-0.11382198 0.08763878 0.42173627
-0.089053549 0.086941831 0.42139727
-0.064120561 0.087087698 0.42118895
-0.036517218 0.089347757 0.42182145
-0.012172919 0.088199019 0.42127421
0.015659649 0.086183608 0.42135406
0.038649354 0.086921938 0.42124349
0.064418636 0.088542461 0.42146003
0.087070152 0.087872535 0.42220041
0.11184253 0.087347381 0.42156041
0.13594232 0.087063268 0.4214389
0.16242115 0.089024715 0.42136514
0.18973066 0.088411614 0.42069545
0.21364859 0.086525157 0.42160234
0.22562738 0.097221702 0.42362866
-0.22884059 0.11077497 0.42243791
-0.21293311 0.11203169 0.42243841
-0.18644336 0.11356629 0.42165196
-0.15991133 0.11244668 0.42146775
-0.1357893 0.11271345 0.42134133
-0.11288626 0.11303815 0.42208982
-0.08665406 0.11296035 0.42147607
-0.062530987 0.11042949 0.42158172
-0.037393682 0.1143896 0.42143154
-0.013425339 0.11363164 0.42127743
0.015830839 0.11063049 0.42123953
0.039370306 0.11070807 0.42157659
0.062592804 0.11208003 0.42168713
0.087004662 0.11382762 0.42106411
0.11335582 0.11237747 0.42172396
0.13805294 0.11500843 0.41844824
0.16176966 0.11538131 0.42011735
0.18917184 0.11231039 0.42100433
0.21206461 0.1132118 0.42167306
-0.20915951 0.13570085 0.42200315
-0.18457794 0.13809825 0.42155117
-0.16226666 0.13849749 0.41388369
-0.13752034 0.13198136 0.41133776
-0.11629692 0.13981767 0.41379675
-0.088884033 0.13828982 0.42116281
-0.062740773 0.13734065 0.42107946
-0.037265662 0.13681555 0.42185178
-0.012748258 0.13524063 0.42103267
0.015646111 0.13742468 0.42128861
0.0389488 0.13678612 0.42144924
0.062171545 0.1368251 0.4217906
0.08663623 0.13842057 0.42189223
0.11531991 0.13851531 0.41723102
0.13508387 0.13443497 0.41110766
0.16495559 0.13507801 0.41200092
0.1828343 0.13929796 0.41471732
0.21050324 0.13785833 0.42191622
-0.20805004 0.15983383 0.42269251
-0.18652461 0.16240375 0.4203189
-0.16215859 0.16416048 0.41221735
-0.13686989 0.16992834 0.41141555
-0.11631668 0.16246583 0.41283792
-0.086449668 0.16207804 0.42097864
-0.060941625 0.16456664 0.42145091
-0.035377271 0.16151555 0.42130148
-0.01352278 0.16396795 0.4208298
0.01498563 0.16285765 0.42103401
0.037336469 0.16367488 0.42161402
0.059291132 0.16357997 0.42136729
0.088378504 0.1634627 0.42131171
0.11702901 0.16167425 0.41750962
0.1373713 0.16578628 0.41179547
0.16282757 0.16438164 0.41112185
0.18353441 0.15697476 0.41328064
0.20717162 0.15802495 0.42343041
-0.20200831 0.17592615 0.42471588
-0.1848366 0.18804841 0.4226779
-0.16211133 0.18629712 0.42011288
-0.13791494 0.18006141 0.41453883
-0.11211652 0.1863831 0.42043385
-0.085802421 0.18783268 0.42137885
-0.062776104 0.18803445 0.42157719
-0.03737412 0.18820728 0.42112342
-0.011671249 0.18876794 0.42070654
0.01553408 0.18755461 0.42109269
0.038450435 0.18742874 0.42051828
0.05852481 0.18725473 0.42179963
0.087198049 0.18808633 0.42161581
0.11390895 0.18706657 0.42147571
0.13601406 0.18888445 0.42183626
0.16179784 0.19057436 0.4228431
0.18766777 0.19153742 0.42279735
0.20194072 0.17768857 0.4217903
-0.15843353 0.20890988 0.42152196
-0.13655832 0.21418536 0.42216772
-0.11169646 0.21347333 0.42250642
-0.088108599 0.21439615 0.42174906
-0.063306369 0.21202345 0.42127472
-0.037030056 0.2128243 0.42188665
-0.012046573 0.21292643 0.42111155
0.015702514 0.21205521 0.42103711
0.03832655 0.21291208 0.42136869
0.061725274 0.21114062 0.42163619
0.087594673 0.21239313 0.4216828
0.11535842 0.21330334 0.42116389
0.13551097 0.21212247 0.42140776
0.16048272 0.21115644 0.42266658
0.17704707 0.20405936 0.42199996
-0.13060491 0.22753951 0.422952
-0.11544625 0.22890306 0.42227104
-0.086997829 0.2347496 0.42237547
-0.061892197 0.23528501 0.42227128
-0.038315527 0.23606214 0.4219946
-0.014058819 0.23587903 0.42182782
0.015676161 0.2352799 0.42095965
0.040467925 0.23451303 0.42132264
0.062290534 0.23322943 0.42158955
0.084148526 0.23106642 0.42233691
0.11119379 0.22961035 0.42194533
0.13228118 0.22641675 0.42485231
-0.13292275 -0.15133983 0.44385085
-0.10917513 -0.15198718 0.44138995
-0.085124083 -0.15238552 0.44019508
-0.063002855 -0.15397263 0.43934342
-0.037921041 -0.15566683 0.43940511
-0.011257981 -0.15645003 0.43969548
0.012731581 -0.15685087 0.43719915
0.036509193 -0.15709583 0.43901163
0.063349932 -0.15606871 0.43907318
0.087475322 -0.1540298 0.44038582
0.10913202 -0.15199843 0.43982691
0.12675411 -0.15025431 0.44626343
-0.18350348 -0.13048996 0.43825221
-0.16238631 -0.13649583 0.43860042
-0.13771491 -0.14158069 0.43865219
-0.11380229 -0.1414645 0.43661258
-0.089408487 -0.14007895 0.43416148
-0.063243054 -0.13792495 0.43443525
-0.037910406 -0.13769753 0.43281403
-0.013487231 -0.13675615 0.43318394
0.012060069 -0.13693203 0.43344781
0.036706094 -0.13692276 0.43381298
0.063015312 -0.13759047 0.43359452
0.088284001 -0.13771287 0.43337214
0.11330996 -0.14072947 0.43599355
0.13668118 -0.13926359 0.43825698
0.1618152 -0.13309954 0.43940771
0.1819687 -0.12781556 0.44002149
-0.20575602 -0.10915563 0.43933544
-0.19017138 -0.11354703 0.4367722
-0.16283301 -0.11329503 0.43070734
-0.13666824 -0.11193652 0.4340539
-0.11237731 -0.11341431 0.43436763
-0.088221602 -0.11300574 0.43399629
-0.062392924 -0.11258938 0.43339518
-0.037122451 -0.11351256 0.43306908
-0.013527147 -0.11320786 0.43292081
0.01149655 -0.11335947 0.43287176
0.037442785 -0.11293873 0.43417275
0.062937349 -0.11283811 0.43313539
0.087062187 -0.11231039 0.43378782
0.11327894 -0.11290936 0.43195903
0.1363824 -0.11228874 0.43264937
0.16296443 -0.11346155 0.43484953
0.18828772 -0.11427179 0.43919402
0.20486905 -0.10782889 0.44156209
-0.21078032 -0.08673355 0.43692389
-0.18981279 -0.088718414 0.43325293
-0.17039511 -0.092319369 0.42898169
-0.12899634 -0.087629713 0.43089029
-0.11257733 -0.088756338 0.43358406
-0.08798293 -0.087527812 0.43347153
-0.062441465 -0.087124512 0.43374231
-0.038125388 -0.087389961 0.43311152
-0.013533567 -0.088848211 0.43324393
0.011403003 -0.087582923 0.43303797
0.037548874 -0.08795552 0.43339741
0.063522384 -0.08690729 0.43309233
0.086784817 -0.087537237 0.43359879
0.11211585 -0.089156374 0.43207321
0.13770032 -0.093769766 0.43025756
0.16830829 -0.090124682 0.43413404
0.18821131 -0.087105379 0.43486193
0.21013421 -0.087067187 0.43915206
0.22585499 -0.076013684 0.42927355
-0.22676291 -0.057902727 0.44295526
-0.21350102 -0.062241893 0.43690464
-0.1875678 -0.06197923 0.43243968
-0.16404858 -0.059976481 0.43224254
-0.1352583 -0.060942344 0.43177348
-0.11290854 -0.062285405 0.43309721
-0.08804369 -0.062260348 0.43322667
-0.06253352 -0.062708206 0.43328547
-0.037546881 -0.062320031 0.43327373
-0.013683187 -0.06369514 0.43336105
0.011422343 -0.063218653 0.43324625
0.036441829 -0.062311277 0.43462083
0.063417807 -0.062584758 0.43427211
0.087486342 -0.062182456 0.43359536
0.11231561 -0.062814578 0.43209651
0.13366616 -0.056281213 0.43253097
0.16666105 -0.060103871 0.4328745
0.18790941 -0.062501252 0.43417665
0.21341944 -0.062321268 0.43733594
0.22643499 -0.056577541 0.43305475
-0.22741687 -0.036312487 0.43928236
-0.21526694 -0.036852483 0.43623599
-0.18876189 -0.037307993 0.43380857
-0.16274728 -0.037576187 0.43337861
-0.13691407 -0.037108496 0.4336251
-0.1129246 -0.037006043 0.43276551
-0.088616416 -0.036558412 0.43399811
-0.062139306 -0.037654378 0.43325433
-0.038359683 -0.037170824 0.43322596
-0.013314254 -0.036526926 0.43381688
0.011173251 -0.036648184 0.43322909
0.037533086 -0.037158992 0.43360126
0.064265557 -0.036817182 0.43377602
0.087848008 -0.037022021 0.43357649
0.11296565 -0.036842201 0.43356097
0.13736121 -0.037107725 0.4341239
0.16229331 -0.037383772 0.43401095
0.18817432 -0.037894659 0.43428892
0.21384995 -0.03741141 0.43785867
0.22789668 -0.034448244 0.43605244
-0.22996172 -0.011391346 0.43618599
-0.21475035 -0.012166124 0.43573859
-0.18817136 -0.013209238 0.43310797
-0.16372654 -0.01248173 0.43341836
-0.1376417 -0.012037309 0.43295762
-0.11181979 -0.012228601 0.43280941
-0.088513814 -0.012759669 0.43355399
-0.061939977 -0.012609533 0.43331403
-0.037333261 -0.012300131 0.43359447
-0.013490651 -0.012138583 0.43335295
0.011671402 -0.01243034 0.4335424
0.037363052 -0.012208537 0.43451998
0.063616842 -0.012547097 0.43375769
0.08801388 -0.012181099 0.43370724
0.11284823 -0.012183957 0.43399793
0.13610765 -0.012631636 0.43466926
0.1623992 -0.012157978 0.43412629
0.18828869 -0.012456351 0.43401799
0.21346194 -0.012849806 0.43693313
0.22787364 -0.012434543 0.43842342
-0.23177582 0.011979237 0.43655676
-0.21495266 0.012519302 0.43487597
-0.18662541 0.011979665 0.43360448
-0.16309303 0.012059306 0.43280765
-0.1365093 0.012813585 0.43392941
-0.11222806 0.01277696 0.43238315
-0.088505626 0.011651023 0.43387264
-0.062301617 0.012767916 0.43327826
-0.038313728 0.011724246 0.43347767
-0.014500806 0.011936616 0.43403363
0.011447546 0.011867501 0.43305555
0.037812021 0.012900476 0.4342266
0.064253077 0.011411466 0.43373951
0.087205447 0.012114429 0.4339394
0.11289383 0.012280015 0.43415186
0.13647069 0.011797694 0.43432027
0.16384964 0.012287062 0.43452704
0.18902205 0.012796739 0.43407771
0.21333458 0.011465958 0.43775955
0.22834583 0.012188765 0.4379645
-0.23255965 0.036779009 0.43722558
-0.21421145 0.037404038 0.43376535
-0.18735765 0.037190929 0.43260744
-0.16333072 0.038064618 0.43250987
-0.13700697 0.037598614 0.43327758
-0.11177854 0.037540216 0.43259114
-0.088978566 0.037653133 0.43315235
-0.062023211 0.038534284 0.43287358
-0.037976772 0.038128834 0.43325633
-0.012957852 0.03816662 0.43304548
0.011822047 0.037401687 0.4333635
0.036979631 0.038387824 0.43401197
0.063462853 0.03830957 0.43340287
0.087905809 0.037068363 0.43322834
0.11245666 0.038008105 0.43395531
0.13696267 0.037066493 0.4344106
0.16287768 0.037617851 0.43388513
0.18914278 0.037633847 0.43380928
0.21373428 0.036656227 0.43741372
0.2286666 0.03849148 0.43701237
-0.23206893 0.062912107 0.43805224
-0.21453176 0.062366828 0.43326303
-0.18711653 0.063235693 0.43310446
-0.16243175 0.062898934 0.4327305
-0.13696058 0.062597074 0.43368524
-0.11244307 0.062667578 0.43280077
-0.089082651 0.062773593 0.43446237
-0.062719077 0.062257379 0.43366277
-0.038229045 0.062895142 0.43338376
-0.013971994 0.061842494 0.43367544
0.011690669 0.061312489 0.4332805
0.037385713 0.06313774 0.43487868
0.064119495 0.06266205 0.43449813
0.087717369 0.062502325 0.4334479
0.11233543 0.062943846 0.43444869
0.13688712 0.062308084 0.43354493
0.16287561 0.062920839 0.43411961
0.18894352 0.062847286 0.4343459
0.21319558 0.062577598 0.43721345
0.22796039 0.062356275 0.43778846
-0.23177521 0.087404393 0.4377121
-0.2154258 0.087427184 0.43406969
-0.18796851 0.088628061 0.43230876
-0.16285771 0.087572612 0.43152574
-0.1367684 0.086647376 0.43380499
-0.11221167 0.087060496 0.43312472
-0.088671416 0.08825326 0.43367532
-0.062227327 0.087537386 0.43329263
-0.038108855 0.088755973 0.43356571
-0.013413505 0.087430574 0.43364796
0.012012066 0.08739876 0.43320578
0.037426651 0.088266306 0.43405142
0.06341967 0.087504998 0.43387187
0.087304167 0.08794871 0.4333114
0.11226922 0.087391913 0.43377846
0.13709763 0.086578041 0.43420199
0.1624527 0.08706677 0.43407539
0.18821417 0.087608725 0.43410373
0.21333271 0.087674506 0.43775234
0.22658381 0.088165551 0.43749285
-0.22996478 0.11193786 0.43527088
-0.21465828 0.11283255 0.43540701
-0.18793929 0.11235842 0.43203327
-0.16271852 0.11243399 0.4321979
-0.13751215 0.11154199 0.43271011
-0.11276762 0.11162287 0.4333182
-0.088701762 0.1129181 0.43416244
-0.062356517 0.11313596 0.43350983
-0.038181767 0.11310747 0.43336871
-0.013631651 0.1123197 0.43297967
0.011280288 0.11343009 0.43336609
0.037019212 0.11325452 0.43414387
0.063321196 0.1119348 0.43367258
0.08791402 0.11212479 0.43341243
0.11276332 0.11238065 0.43361175
0.13701971 0.11202375 0.43354791
0.16241021 0.1124098 0.43331429
0.18930112 0.11194047 0.43467548
0.21143182 0.11218149 0.43758672
0.22544228 0.10275115 0.44395798
-0.22735974 0.13152015 0.43607455
-0.21301942 0.13834716 0.43698695
-0.18816018 0.13796629 0.43154165
-0.16425848 0.13715464 0.43009841
-0.13421875 0.12939519 0.43158707
-0.11224616 0.13770053 0.43238899
-0.088380881 0.1375643 0.43458989
-0.062287398 0.13801332 0.43328241
-0.037918575 0.13729352 0.43368012
-0.013323443 0.13675505 0.43312842
0.011764806 0.13687453 0.43324849
0.037007824 0.13750529 0.4332532
0.063340262 0.1378212 0.4334676
0.088109873 0.13691615 0.43322787
0.11205523 0.13694803 0.43212441
0.13272525 0.13199782 0.43030089
0.16651201 0.13433847 0.43333566
0.1883059 0.13816321 0.43529454
0.20872161 0.13719209 0.43877423
-0.2083859 0.16083504 0.43781745
-0.19030468 0.1642873 0.43493038
-0.16474904 0.16506344 0.43274501
-0.13476664 0.17018619 0.43206435
-0.11176604 0.16307634 0.4334957
-0.088157356 0.1621068 0.43351138
-0.06177789 0.16261721 0.43313262
-0.036774751 0.16300857 0.43352094
-0.013333699 0.16355629 0.43296531
0.012058148 0.16364439 0.43324721
0.037151847 0.16269794 0.43418115
0.062345393 0.16339424 0.43327463
0.088253319 0.16193129 0.43411011
0.11205363 0.16272624 0.43341279
0.13650049 0.16690299 0.43293321
0.16366605 0.16482836 0.4339667
0.19089361 0.16329521 0.43795472
0.20651209 0.16096412 0.43877402
-0.20296173 0.18116367 0.43945676
-0.18692893 0.18718423 0.43805069
-0.16456085 0.18907194 0.43484667
-0.13776734 0.18739024 0.43372208
-0.11295912 0.18838623 0.43385988
-0.08783602 0.1872859 0.43412557
-0.0622903 0.1875224 0.43357226
-0.037528023 0.18811317 0.43372321
-0.013335423 0.1878268 0.4330489
0.011638173 0.18825911 0.43341169
0.03691579 0.18755251 0.43409285
0.063234292 0.18800174 0.43392503
0.0882423 0.18810381 0.43364295
0.11233172 0.18832485 0.43325326
0.13797832 0.18829925 0.43489614
0.16552554 0.18866593 0.43647081
0.18648711 0.18716513 0.43976313
0.20336868 0.17851025 0.43569848
-0.17890753 0.2040242 0.43875644
-0.1607776 0.20986022 0.43747953
-0.13840257 0.21527238 0.43694133
-0.11335859 0.21367621 0.433952
-0.088016734 0.21259952 0.43372411
-0.062848397 0.21235354 0.43359816
-0.03810316 0.21260995 0.43385196
-0.013348291 0.21295027 0.43332633
0.011459822 0.21302988 0.43330997
0.037271868 0.21257034 0.43429056
0.062835768 0.21204638 0.43309641
0.087229878 0.21257104 0.43408075
0.1131978 0.2141536 0.43506753
0.1384089 0.21646152 0.43806189
0.1622545 0.20943968 0.43876737
0.18143709 0.20339909 0.43745163
-0.13149513 0.22719826 0.43995509
-0.11178952 0.22995363 0.43819141
-0.087948002 0.23391126 0.43810561
-0.062395114 0.23576263 0.43689844
-0.037795767 0.23753101 0.43780214
-0.012684125 0.23789702 0.43810886
0.012612293 0.23742709 0.43752784
0.036176268 0.23647408 0.43776008
0.06260208 0.23437619 0.43776837
0.08720956 0.23197421 0.4380374
0.11107586 0.22917047 0.43752694
0.13194825 0.22691678 0.43980491
-0.13034631 -0.15170553 0.46123824
-0.1092329 -0.15240723 0.45905468
-0.085385308 -0.15282528 0.45969543
-0.061138451 -0.15347469 0.46068841
-0.036944449 -0.15533726 0.46022043
-0.0129114 -0.1562967 0.46163779
0.012382422 -0.15697661 0.46157414
0.037126288 -0.15686497 0.46048841
0.062457182 -0.15641828 0.46081069
0.087529495 -0.15376651 0.46113157
0.10875448 -0.15184951 0.46116611
0.12622234 -0.15080948 0.46182871
-0.1841107 -0.13023947 0.46006164
-0.16090994 -0.13501735 0.46116582
-0.13845421 -0.13790856 0.46288782
-0.11271186 -0.14118473 0.46179682
-0.086635202 -0.13796119 0.46508819
-0.062880658 -0.13870306 0.46540987
-0.038324151 -0.13711786 0.46452388
-0.014534033 -0.1365459 0.46755162
0.010704467 -0.13723339 0.46528789
0.037366193 -0.13665037 0.46614844
0.062523805 -0.13756756 0.46682292
0.088452533 -0.13754752 0.46532333
0.11290108 -0.14007945 0.46397963
0.13653703 -0.13874775 0.46332908
0.16178671 -0.13238317 0.46298337
0.17959942 -0.12845935 0.46040776
-0.20593411 -0.10822471 0.46086568
-0.18837292 -0.11357811 0.46140715
-0.16064192 -0.11295033 0.46329582
-0.13784213 -0.11071212 0.46549228
-0.11210392 -0.11253583 0.46271965
-0.08769232 -0.10981622 0.4655185
-0.062640451 -0.11292645 0.46453357
-0.038609747 -0.11227651 0.46421787
-0.012796464 -0.10985332 0.4648827
0.011281946 -0.11166348 0.46464565
0.036661539 -0.11111522 0.46512589
0.064386979 -0.11045001 0.46584776
0.087313034 -0.11246583 0.46527657
0.11150479 -0.10962136 0.46664131
0.13812529 -0.11327311 0.46671075
0.16322102 -0.11309284 0.46435529
0.18804818 -0.11306974 0.46308285
0.20579638 -0.10756937 0.46254566
-0.20953648 -0.086685024 0.46045262
-0.18713383 -0.087695271 0.46314341
-0.16135289 -0.087315209 0.46228322
-0.13716441 -0.088274002 0.46439898
-0.11279535 -0.087145813 0.46329689
-0.087004267 -0.086632073 0.4639906
-0.062349223 -0.087123767 0.46373972
-0.03960859 -0.087895401 0.46400133
-0.014241309 -0.086988702 0.46426138
0.011827113 -0.08722572 0.46465936
0.036673084 -0.087105796 0.46421772
0.063423052 -0.08659219 0.46461666
0.087946646 -0.08771468 0.46479732
0.11264731 -0.087759726 0.46398968
0.13796926 -0.087721936 0.46493021
0.16265951 -0.087609179 0.46463466
0.1873274 -0.088094346 0.46559066
0.21009982 -0.086614594 0.46159795
-0.21229628 -0.062129654 0.46104375
-0.18728994 -0.062025428 0.46300915
-0.16107555 -0.062623508 0.46285757
-0.13752484 -0.063032277 0.46421403
-0.11226036 -0.062022701 0.46327794
-0.087154672 -0.061854396 0.46394405
-0.061946616 -0.062707186 0.46312073
-0.038380358 -0.063227117 0.4635101
-0.014449757 -0.06283208 0.46465361
0.010920843 -0.062938392 0.46501258
0.037337597 -0.062079061 0.46428642
0.063976422 -0.062051076 0.46451801
0.088401198 -0.062191173 0.46625856
0.11285283 -0.063462175 0.46401528
0.13799283 -0.061943963 0.46629503
0.16245566 -0.062316317 0.46475524
0.18714872 -0.061898362 0.46671566
0.2127406 -0.061813001 0.46253431
0.22688444 -0.058838416 0.45977041
-0.22792394 -0.03730863 0.45751807
-0.21350794 -0.037444659 0.46149012
-0.18673547 -0.036990501 0.46383634
-0.1619724 -0.037030809 0.46345258
-0.13728581 -0.037275847 0.4640944
-0.11253633 -0.036448948 0.46304739
-0.086231217 -0.037317723 0.46406019
-0.06246563 -0.038030628 0.46412379
-0.039273567 -0.037004173 0.46411106
-0.014423502 -0.037742715 0.46549106
0.011944169 -0.037152849 0.46381345
0.036636952 -0.036815811 0.46463537
0.063510031 -0.037713613 0.46516976
0.087768488 -0.037458271 0.46476203
0.11278083 -0.037075266 0.4643791
0.13828585 -0.036113314 0.46578223
0.16273892 -0.037858631 0.46472284
0.1880182 -0.036881141 0.46549025
0.21249904 -0.037165351 0.46283314
0.22753687 -0.03637759 0.45980084
-0.22973317 -0.012067645 0.46023932
-0.21320945 -0.012940777 0.46147612
-0.1869856 -0.012144788 0.46369821
-0.16178723 -0.012616041 0.46346486
-0.13810906 -0.013107177 0.46382773
-0.1124822 -0.012439489 0.46356174
-0.087389685 -0.013359329 0.46411988
-0.062146038 -0.012762414 0.46346569
-0.038476523 -0.012567567 0.46326929
-0.014189694 -0.013267121 0.46419054
0.011925914 -0.012757287 0.46498176
0.037611157 -0.012798721 0.46438754
0.062795326 -0.013240323 0.46497014
0.087339789 -0.013167204 0.46452042
0.11303538 -0.012805226 0.46355444
0.13768643 -0.011260098 0.46540648
0.16197191 -0.012668011 0.46451381
0.18826476 -0.012758515 0.46498784
0.21316084 -0.0129965 0.4627564
0.22804053 -0.012009661 0.4600994
-0.2320424 0.012437271 0.4597933
-0.21385209 0.012758349 0.46232936
-0.18768455 0.012441093 0.46376833
-0.16184492 0.011709883 0.46410224
-0.13739672 0.011863133 0.46363902
-0.11280312 0.011788661 0.46346104
-0.08678145 0.011516872 0.46425983
-0.062525168 0.012270783 0.46380806
-0.039053831 0.011921431 0.46365237
-0.014534675 0.012169909 0.46503255
0.011449994 0.011913084 0.46369463
0.037406996 0.011610167 0.4643704
0.062898211 0.011402324 0.46518049
0.086819954 0.012274609 0.46467561
0.11225607 0.011878545 0.46445695
0.13850726 0.012872739 0.46523276
0.16249248 0.013009634 0.46451819
0.18755756 0.01252893 0.46525663
0.21403424 0.012055963 0.46288976
0.22796297 0.011930356 0.46036875
-0.23256177 0.037716825 0.46078905
-0.21431929 0.037982937 0.46250355
-0.18711224 0.037186552 0.46354195
-0.16170311 0.037569832 0.46344134
-0.13763763 0.03779972 0.46348512
-0.11239383 0.036997147 0.46336576
-0.087250553 0.037852068 0.46466461
-0.061362822 0.037908271 0.46359858
-0.038191784 0.038244739 0.46326971
-0.014561612 0.038462952 0.46532571
0.011195257 0.038506951 0.46422514
0.036984004 0.038210724 0.46452957
0.062880792 0.037649307 0.46505442
0.08790008 0.037645139 0.4649359
0.11286157 0.038082909 0.46402436
0.13737974 0.038104199 0.4653033
0.16193639 0.037270378 0.464968
0.1870698 0.037517659 0.46507868
0.21337126 0.03771713 0.46283627
0.22788221 0.036366031 0.46090659
-0.23298991 0.063446581 0.46092349
-0.21425664 0.06339325 0.46246505
-0.18786159 0.062056653 0.46322879
-0.16102426 0.062587313 0.4637661
-0.13676623 0.062945738 0.46373248
-0.11290411 0.062446576 0.46295467
-0.087037764 0.062525816 0.46404904
-0.061945155 0.062993005 0.46400002
-0.038618416 0.06212125 0.46342766
-0.013972777 0.063285753 0.46496457
0.012076979 0.062902294 0.46410459
0.037267927 0.063151322 0.46426538
0.062575176 0.062322561 0.46513739
0.087087035 0.062694959 0.46464983
0.11263929 0.063279681 0.46413913
0.13864847 0.062363904 0.4649488
0.16260169 0.062464293 0.46492469
0.18708958 0.062946036 0.46520573
0.21338455 0.062989712 0.46287555
0.22746874 0.060928427 0.46067008
-0.23239297 0.087917224 0.46055818
-0.21369657 0.087458231 0.46179697
-0.18611991 0.088251851 0.46320525
-0.16128685 0.087307818 0.46398908
-0.13701844 0.087510623 0.46394527
-0.11267829 0.086882107 0.46323186
-0.087964326 0.087556884 0.46445438
-0.061179008 0.088392884 0.46351194
-0.037536483 0.087471589 0.46373618
-0.014169886 0.087964803 0.46526363
0.011365779 0.087928377 0.46437585
0.037204098 0.087512121 0.46435973
0.06273073 0.087414943 0.46494418
0.087231129 0.087191835 0.46431571
0.11241332 0.087148391 0.46434295
0.13796556 0.087664686 0.4654502
0.16212803 0.088101625 0.46438599
0.18678533 0.087992437 0.46542341
0.2125507 0.087685943 0.46273002
0.22610538 0.08444763 0.4622173
-0.22995037 0.11204591 0.46101454
-0.21371409 0.1120831 0.46212536
-0.18728304 0.1127621 0.46344107
-0.16162206 0.11191495 0.46402949
-0.13754514 0.11252095 0.46316582
-0.1132821 0.11268326 0.46342286
-0.087474085 0.11226878 0.46394467
-0.061638094 0.11325836 0.46380973
-0.037756067 0.11281791 0.46327159
-0.013488784 0.11228371 0.46418187
0.011942768 0.11350176 0.46407664
0.036528286 0.11158917 0.46488866
0.062168688 0.11258778 0.46519879
0.086173244 0.11258244 0.46424893
0.11213084 0.11255342 0.46456727
0.13809657 0.11242165 0.46496823
0.16312537 0.11267612 0.46427268
0.18741603 0.11241582 0.46519324
0.21130042 0.11204871 0.46133548
0.22518659 0.10052956 0.46319902
-0.2267186 0.13410188 0.45879686
-0.21282454 0.13832814 0.46131
-0.18725899 0.13799979 0.46322522
-0.16169707 0.13743117 0.46367383
-0.13746053 0.13829111 0.4636682
-0.11335576 0.13833539 0.46352857
-0.086763486 0.13739973 0.46450406
-0.061858721 0.13739578 0.46368304
-0.037779462 0.13754849 0.46433622
-0.014166269 0.13659808 0.46503469
0.012269493 0.137603 0.46368489
0.037337288 0.13692135 0.46426153
0.06324821 0.13792461 0.46459907
0.087485477 0.13775946 0.46435222
0.11285114 0.13799883 0.46458694
0.13771723 0.13791873 0.46516562
0.16174482 0.13783717 0.46443093
0.187676 0.13826962 0.46486884
0.20842919 0.1360559 0.46198571
-0.20844334 0.16186841 0.46132013
-0.1883501 0.16356978 0.46236309
-0.16169767 0.16268066 0.46414694
-0.13778493 0.16255091 0.46367389
-0.11272307 0.16245706 0.46352074
-0.086590998 0.16250181 0.46383473
-0.062097672 0.16298226 0.46398792
-0.037837856 0.16345842 0.46344006
-0.013705498 0.16328105 0.4651784
0.012640209 0.16356128 0.46366787
0.037515529 0.16271728 0.46497762
0.061968993 0.16288304 0.46447536
0.08717557 0.1627754 0.46442169
0.11245137 0.16264337 0.46442246
0.13755612 0.16228007 0.46445164
0.16345125 0.16239212 0.46443605
0.18938087 0.1631901 0.46402681
0.20531975 0.16003133 0.46122128
-0.2032081 0.18078686 0.46571702
-0.18628955 0.18679477 0.46088696
-0.16312395 0.18779576 0.46315825
-0.1377227 0.18724783 0.46377319
-0.11280567 0.18714492 0.46341747
-0.086272471 0.18717799 0.4643321
-0.061731722 0.18710338 0.46357664
-0.038323004 0.18857665 0.46347901
-0.01393062 0.18749006 0.4644537
0.012929668 0.18802372 0.46354762
0.037395004 0.18726841 0.46471828
0.062427662 0.18839842 0.46532324
0.086828612 0.18730097 0.46418381
0.11226023 0.18763851 0.46453467
0.13714877 0.18734615 0.46514246
0.16296513 0.18786235 0.46367642
0.18542406 0.18686397 0.46338624
0.20133571 0.17954673 0.46692601
-0.17884526 0.20375341 0.46402937
-0.16068201 0.20953147 0.46072429
-0.1374594 0.2144168 0.46234471
-0.1122551 0.21341847 0.46345562
-0.086261436 0.21234682 0.46426445
-0.062397659 0.21219206 0.46381834
-0.038625065 0.21261598 0.4639869
-0.014734588 0.21273981 0.46531594
0.012426889 0.21269581 0.46387857
0.037565485 0.21195072 0.46470684
0.061509505 0.21309708 0.46417648
0.086852148 0.21205838 0.46483359
0.11367894 0.21385513 0.46437344
0.13752159 0.214921 0.46338171
0.16118912 0.20913938 0.46200144
0.18018813 0.20405185 0.46098959
-0.13131401 0.22786552 0.46166885
-0.11089499 0.23054034 0.46153885
-0.086405128 0.23388971 0.46204445
-0.062001161 0.2356063 0.46208701
-0.037988909 0.23657735 0.46156311
-0.013522478 0.23725437 0.46304399
0.012626992 0.23661642 0.46234521
0.037696019 0.23603946 0.4621321
0.062181994 0.2342179 0.46204796
0.087905154 0.23145561 0.46207359
0.11029657 0.22923949 0.46063054
0.1303212 0.22630855 0.46011263
-0.11043086 -0.15051216 0.47637391
-0.089519784 -0.15278864 0.47597727
-0.06050973 -0.15450041 0.47589993
-0.036709208 -0.15741082 0.47569087
-0.014731107 -0.15511426 0.47597313
0.012082766 -0.15926899 0.47565916
0.036878042 -0.15622059 0.4755865
0.059812564 -0.15369263 0.47630772
0.089649454 -0.15376627 0.47630951
0.10904142 -0.15144205 0.47593033
-0.17977199 -0.12692988 0.47712108
-0.15615213 -0.13036183 0.48743179
-0.13965017 -0.1305193 0.48747143
-0.11634441 -0.13353892 0.48157251
-0.086024508 -0.13069713 0.48674852
-0.066046432 -0.13277443 0.48460674
-0.032956503 -0.13348629 0.48280662
-0.012981469 -0.1320022 0.48627004
0.010075472 -0.13456944 0.48314095
0.041232225 -0.13245364 0.48516536
0.060573407 -0.13143486 0.48617506
0.087510504 -0.13397756 0.47947669
0.11437749 -0.13074142 0.48660105
0.13610239 -0.13077565 0.48651314
0.15707219 -0.13006786 0.48082465
-0.19071965 -0.11130926 0.47683004
-0.15705813 -0.11493191 0.48725203
-0.13955374 -0.11498976 0.48707631
-0.11093583 -0.1156409 0.48280153
-0.087520488 -0.11254785 0.48720583
-0.066851661 -0.11506804 0.48640093
-0.03099902 -0.11499253 0.48806974
-0.012150147 -0.11239307 0.48664111
0.0099476622 -0.11580633 0.4842746
0.041002028 -0.11442447 0.48745435
0.058946919 -0.11385534 0.48764014
0.089112721 -0.11759422 0.48076898
0.1117294 -0.11313775 0.48760045
0.13327436 -0.11557566 0.48721868
0.15985918 -0.11304408 0.47627509
0.18476483 -0.11055687 0.47559065
-0.20807473 -0.086840764 0.47666845
-0.1856852 -0.08902768 0.47668451
-0.16540964 -0.089170873 0.47615343
-0.13554803 -0.087706812 0.47679502
-0.10842361 -0.08487238 0.47609329
-0.077195726 -0.084562048 0.47586781
-0.067824945 -0.085980192 0.4773016
-0.043666244 -0.087103046 0.47593555
-0.010810245 -0.087773561 0.47660875
0.014551274 -0.081239492 0.47673064
0.039019018 -0.088131212 0.47601509
0.062302805 -0.087511539 0.47636375
0.086962961 -0.085873358 0.47625762
0.11649562 -0.087927207 0.47593701
0.13987999 -0.090054989 0.47621247
0.16103861 -0.089194506 0.47608271
0.18341666 -0.0891909 0.47585672
0.20220387 -0.085438766 0.47589701
-0.21088655 -0.064190447 0.47596672
-0.18678726 -0.058977801 0.47681198
-0.16584936 -0.065702021 0.47634211
-0.13634312 -0.060816802 0.47734478
-0.11453804 -0.057465248 0.47648519
-0.090810023 -0.06375064 0.47635615
-0.068009332 -0.059205655 0.47758695
-0.042349655 -0.062052071 0.47612324
-0.013628398 -0.062057447 0.47655857
0.016296722 -0.061094575 0.47633642
0.038219966 -0.064214915 0.47614068
0.056156911 -0.061444215 0.47652048
0.08575058 -0.061594363 0.47596976
0.1169682 -0.061929919 0.47633094
0.13862626 -0.064979166 0.47633937
0.16052198 -0.063204736 0.47616327
0.18208829 -0.062271513 0.47573835
0.20487674 -0.062007777 0.47613114
-0.2114931 -0.038402759 0.47618037
-0.18457736 -0.037616987 0.47657388
-0.16255897 -0.03662746 0.4764061
-0.13677835 -0.036853027 0.47668475
-0.11395567 -0.038841892 0.47658858
-0.086666487 -0.035221644 0.47611168
-0.064337708 -0.036545288 0.47693655
-0.042960186 -0.037657168 0.47612852
-0.012716697 -0.038694456 0.47659945
0.015870307 -0.036352053 0.47688955
0.035891026 -0.036973599 0.47621411
0.056362733 -0.036510859 0.47659099
0.08655335 -0.036967386 0.47621572
0.1158355 -0.037290353 0.47634104
0.14056191 -0.037884083 0.47606608
0.16246791 -0.038414437 0.47619644
0.18353716 -0.037633792 0.47604787
0.20507321 -0.036949281 0.47629628
0.22593164 -0.028282762 0.4750874
-0.22726938 -0.023262382 0.47775626
-0.20958379 -0.015110072 0.47610301
-0.18559466 -0.012294569 0.47702456
-0.16037112 -0.012291317 0.47717977
-0.13250285 -0.012778173 0.47664595
-0.1142861 -0.013419858 0.47724214
-0.087324098 -0.010703224 0.47652203
-0.062468059 -0.014382578 0.47677308
-0.044890143 -0.015879404 0.47683471
-0.011977749 -0.014147445 0.47698769
0.016125992 -0.012484699 0.47677779
0.033937167 -0.012977413 0.47646403
0.058612034 -0.011624351 0.47703135
0.085721411 -0.012738336 0.47606578
0.11722319 -0.013920093 0.47633854
0.14130643 -0.013288431 0.47652179
0.16386181 -0.013697012 0.47614938
0.18378516 -0.013355354 0.47612762
0.20535751 -0.013738456 0.47608143
0.22555602 -0.0085452795 0.47519034
-0.21202406 0.012279406 0.47671691
-0.18571749 0.01162951 0.47658643
-0.16227075 0.014618014 0.47771949
-0.13709007 0.012433611 0.47646621
-0.11845539 0.010975354 0.47676328
-0.086793669 0.012216389 0.47655427
-0.063055575 0.01180652 0.47697893
-0.04366859 0.013320689 0.47674996
-0.012518937 0.011296419 0.47670373
0.016706407 0.012072511 0.47678185
0.036097981 0.01202798 0.47656488
0.058402836 0.013139248 0.47702327
0.087436147 0.013256346 0.47649983
0.11593621 0.012319453 0.47654045
0.14130451 0.011352033 0.47598657
0.16490582 0.011174753 0.47631249
0.18568677 0.011188733 0.47612879
0.20877494 0.014426892 0.47635683
0.22740772 0.0023124218 0.47550571
-0.22950895 0.031903327 0.47840923
-0.20992358 0.038458172 0.47653022
-0.19230142 0.038159482 0.47660431
-0.16629474 0.038648248 0.47644955
-0.14021681 0.040143516 0.47710124
-0.11914061 0.034405869 0.47720638
-0.089453936 0.037016284 0.47674626
-0.062120195 0.039615829 0.47723123
-0.043610137 0.035723466 0.47663707
-0.012935402 0.03756291 0.47659305
0.015640574 0.035802022 0.47702077
0.0359139 0.037167471 0.47670454
0.060781352 0.040730868 0.47714588
0.086607084 0.039029479 0.47624472
0.11843097 0.040243872 0.47653621
0.14098585 0.036351301 0.47655129
0.16248311 0.037214603 0.47657546
0.18436421 0.036853656 0.47657475
0.21010172 0.037209727 0.47609267
0.22757488 0.036757946 0.4759897
-0.2265473 0.058739543 0.47734201
-0.21261501 0.060354315 0.47677755
-0.18943766 0.063113011 0.47630075
-0.16392739 0.059590504 0.47733098
-0.13700593 0.063265808 0.4764131
-0.11663278 0.0623396 0.47688356
-0.082820952 0.062676355 0.47723049
-0.064756513 0.06417533 0.47705746
-0.043467846 0.061647579 0.47674215
-0.012678252 0.061037783 0.47687626
0.015440673 0.06423685 0.47679421
0.035075948 0.061898086 0.47691974
0.063027345 0.063839987 0.47685838
0.087393947 0.064178571 0.47653833
0.11612337 0.062986061 0.47662705
0.14124079 0.062986799 0.47628018
0.15996264 0.064450152 0.47703892
0.18698701 0.062768281 0.47633532
0.20961797 0.061163835 0.47639957
-0.22864224 0.088429466 0.47852018
-0.21007304 0.086544715 0.47645926
-0.18568739 0.086484887 0.47696
-0.160364 0.083025537 0.47796562
-0.13739784 0.084364064 0.47616136
-0.11832577 0.089608893 0.47725365
-0.086246595 0.088479698 0.47707099
-0.065609448 0.088652164 0.47702646
-0.044913877 0.086684659 0.47634554
-0.012677683 0.087440856 0.47683412
0.014495636 0.086465962 0.47698811
0.036800742 0.085974097 0.47688344
0.058240205 0.088397413 0.47723907
0.085615195 0.085909776 0.47631532
0.1155062 0.087861083 0.47657189
0.14209299 0.088117257 0.47674435
0.16174677 0.09149421 0.47692695
0.18579043 0.087570675 0.4763872
0.21134141 0.088839695 0.47632775
-0.21235126 0.11061052 0.47711259
-0.18522801 0.11135917 0.47713372
-0.16339381 0.11250108 0.47731411
-0.13567124 0.11143787 0.47701016
-0.11419775 0.11046498 0.47657496
-0.087408058 0.112513 0.47755346
-0.063668929 0.11038792 0.47745138
-0.04449122 0.11496425 0.47712204
-0.011923712 0.1112057 0.4772549
0.015436739 0.11043737 0.47707635
0.035800152 0.1137417 0.47695893
0.061075382 0.11109066 0.4769482
0.086395964 0.11005887 0.47638553
0.11578717 0.11487536 0.4769001
0.14058892 0.1118714 0.47648942
0.16395214 0.11440068 0.47707772
0.18616463 0.1117188 0.47633803
0.20783059 0.11258724 0.47667816
-0.21289839 0.13549073 0.47693914
-0.18842842 0.13952102 0.4774963
-0.16467419 0.13841325 0.47812331
-0.13247409 0.13749897 0.47713357
-0.11180154 0.13659859 0.47734278
-0.083573721 0.13999799 0.47649297
-0.063424222 0.13759674 0.47696978
-0.045750957 0.13557506 0.47597772
-0.012584767 0.13730441 0.47711495
0.014057592 0.13343634 0.47735199
0.036128957 0.13977167 0.47726163
0.058148038 0.13524109 0.47728607
0.087698504 0.13743296 0.47663572
0.11280476 0.13762748 0.4767068
0.14108583 0.136941 0.47684491
0.16220972 0.1353026 0.47690862
0.18736593 0.137255 0.47677439
0.21106386 0.13059835 0.47583967
-0.20617059 0.16036013 0.47687832
-0.18392172 0.16385847 0.47702771
-0.16309609 0.16000812 0.47772074
-0.13565071 0.16085465 0.47687292
-0.1115823 0.16398259 0.47768304
-0.087601423 0.16252451 0.47686708
-0.062136743 0.16314434 0.47684351
-0.04443403 0.16136347 0.47731808
-0.013233537 0.16336983 0.47713727
0.013974558 0.16037567 0.47712353
0.036110837 0.1628167 0.47714341
0.061314385 0.1609419 0.47761214
0.08579766 0.16169862 0.47661221
0.11734996 0.16109209 0.47693211
0.1389596 0.16334078 0.47664738
0.16243806 0.16178292 0.47698942
0.18549468 0.16283815 0.4761914
0.20508122 0.15932661 0.47584215
-0.1869735 0.1879614 0.47698438
-0.16415784 0.18850449 0.47784567
-0.13494463 0.18451068 0.47722709
-0.11492409 0.18913853 0.47726363
-0.087261237 0.18648455 0.4769173
-0.061736632 0.18692064 0.47683701
-0.045261797 0.18624096 0.47743464
-0.014096722 0.1871095 0.47716922
0.015662367 0.18596114 0.47772431
0.036129266 0.18717022 0.47677687
0.060775436 0.18779461 0.47737589
0.088087015 0.18666503 0.47663668
0.11355226 0.18644378 0.47680712
0.1371839 0.18693694 0.4772042
0.16326919 0.18469384 0.47701192
0.18552044 0.18451269 0.47607672
-0.17774999 0.20318674 0.47554582
-0.16036786 0.21161264 0.47722459
-0.13479529 0.20911165 0.47712013
-0.11395123 0.21264844 0.47711447
-0.088102147 0.21478036 0.47761834
-0.064821512 0.21284005 0.47745275
-0.044861406 0.21094853 0.47686407
-0.01489248 0.21250029 0.47723597
0.015168026 0.21415253 0.47753447
0.035718836 0.2111475 0.47736737
0.062558033 0.21278763 0.47734004
0.088426568 0.21257347 0.47674939
0.11478262 0.21090129 0.47684488
0.13825659 0.21157153 0.47640857
0.15982032 0.20475772 0.47778887
-0.11653376 0.22789097 0.47679311
-0.085601099 0.23057272 0.47605598
-0.061707541 0.23385067 0.47779477
-0.042796202 0.23490062 0.47668034
-0.01151578 0.23635872 0.4769505
0.011054829 0.23610818 0.47642803
0.036469009 0.23283662 0.47768688
0.060117885 0.23275326 0.47658738
0.088596173 0.23138154 0.47636357
0.11931065 0.22551763 0.47660458
-0.15959495 -0.13060674 0.51387936
-0.14045049 -0.13181835 0.51405692
-0.10703706 -0.12843448 0.51338804
-0.085854307 -0.13142401 0.51320493
-0.067546844 -0.13119893 0.51068348
-0.029869635 -0.1301676 0.51361775
-0.012426383 -0.13131444 0.5131501
0.0050029517 -0.13036858 0.51397038
0.041944221 -0.13045476 0.51310158
0.061694145 -0.13172604 0.51290601
0.0778284 -0.13024963 0.51223415
0.11454144 -0.1305013 0.5125795
0.13592029 -0.13128026 0.51276511
0.15174815 -0.1297802 0.51735407
-0.15844177 -0.11530787 0.51300877
-0.14197721 -0.11701976 0.51198262
-0.10811556 -0.11968283 0.51301914
-0.087678693 -0.11466243 0.51258552
-0.067335747 -0.11822759 0.51127851
-0.031088369 -0.11591581 0.5142206
-0.014918456 -0.1144826 0.51346481
0.0040867776 -0.1207248 0.51313329
0.043097407 -0.11563177 0.51375777
0.059989236 -0.11586157 0.51298827
0.079151765 -0.12154679 0.51111573
0.11528607 -0.11567683 0.51221859
0.13483605 -0.11586499 0.51362038
0.15401243 -0.12068038 0.51469427
-0.17670871 -0.13108811 0.54318714
-0.16259506 -0.13254148 0.53802907
-0.14158757 -0.13192527 0.53868109
-0.1018889 -0.13150382 0.53828496
-0.087992854 -0.13345641 0.5387587
-0.067193232 -0.13333577 0.53737265
-0.02994233 -0.13252947 0.53706753
-0.012663969 -0.13370042 0.53808647
0.0057025556 -0.13311678 0.53908122
0.04326158 -0.13194998 0.53882998
0.063109085 -0.13385348 0.53784156
0.079082921 -0.13157186 0.53886539
0.11886194 -0.1314463 0.53678787
0.13874045 -0.13350764 0.53741211
0.15600073 -0.130758 0.53894639
-0.17724247 -0.12061729 0.5442301
-0.16183433 -0.11736234 0.53772616
-0.14146571 -0.1189274 0.53538388
-0.10138539 -0.12066565 0.53647214
-0.086982071 -0.11677977 0.53722966
-0.068859667 -0.11896913 0.5352025
-0.030347615 -0.11886955 0.53986567
-0.013954576 -0.11654675 0.5376451
0.0053844824 -0.12223219 0.53698224
0.044621687 -0.11775811 0.53660697
0.059678718 -0.11720182 0.53813058
0.080020137 -0.12200107 0.5381394
0.11939376 -0.11756127 0.53484875
0.13689044 -0.11629645 0.53718096
0.15470253 -0.12066034 0.54154956
-0.17866272 -0.13472146 0.56560987
-0.16312373 -0.13475096 0.5629285
-0.14313212 -0.13351759 0.5626474
-0.10268313 -0.1332687 0.56277597
-0.08654429 -0.13600275 0.56297022
-0.066513002 -0.13443889 0.5629974
-0.030378202 -0.13342696 0.56029934
-0.012459151 -0.13615026 0.56274754
0.0053233854 -0.13401805 0.5657919
0.043350182 -0.13304813 0.56331593
0.062919021 -0.13560146 0.56260121
0.081035569 -0.13346231 0.56252128
0.12222946 -0.13025524 0.56010371
0.13824613 -0.13543342 0.56312484
0.15926617 -0.13279763 0.563155
0.17578153 -0.13607806 0.57349098
-0.17812356 -0.12183132 0.56188154
-0.162632 -0.1192588 0.56267589
-0.14334981 -0.12118836 0.56207597
-0.10236609 -0.1225921 0.5656172
-0.087222852 -0.1195169 0.56143749
-0.067647524 -0.12204257 0.56059277
-0.030061983 -0.11978567 0.56052661
-0.01545847 -0.11884292 0.5633049
0.005005151 -0.12195104 0.55745792
0.045637641 -0.11963812 0.56131738
0.060261067 -0.11936756 0.56386334
0.0785041 -0.12170527 0.56282204
0.12234085 -0.12277878 0.5616256
0.13887496 -0.11868904 0.56250024
0.15583956 -0.12005971 0.56402123
-0.18209913 -0.1361084 0.58879387
-0.16314879 -0.13648 0.58788884
-0.14581527 -0.13466634 0.58648384
-0.10297468 -0.134406 0.58701271
-0.087529525 -0.13691869 0.58765084
-0.068316184 -0.13635813 0.5875389
-0.031143324 -0.13507728 0.58532059
-0.012951593 -0.13647331 0.58762151
0.004984743 -0.13577904 0.58895427
0.044122778 -0.13385411 0.58818781
0.063398935 -0.1362664 0.58660084
0.080363661 -0.13485318 0.58743221
0.13971414 -0.13583919 0.58700824
0.1615541 -0.13636523 0.58824068
0.17777351 -0.13477354 0.59125584
-0.18075716 -0.12205021 0.5889129
-0.16614407 -0.12116891 0.58644456
-0.14935951 -0.1231999 0.58469349
-0.10208136 -0.1217286 0.58746278
-0.08843945 -0.12089594 0.58687067
-0.070982568 -0.12294042 0.58363199
-0.030413456 -0.12225068 0.58987433
-0.01339081 -0.12084237 0.58651268
0.0030267239 -0.12272184 0.59005731
0.046346445 -0.122089 0.58650732
0.060301308 -0.12082256 0.58770382
0.078354098 -0.12279849 0.58251202
0.14162488 -0.12093598 0.58692187
0.15971716 -0.12165222 0.58934814
0.053691484 -0.15008742 0.61887825
-0.18488672 -0.13633676 0.61263794
-0.16496484 -0.13533266 0.61131597
-0.14874582 -0.13824171 0.60871625
-0.10370302 -0.13647474 0.61242366
-0.087184742 -0.1374656 0.61230981
-0.067418642 -0.13686971 0.61355555
-0.030506011 -0.13677892 0.61245173
-0.012955054 -0.13792996 0.61316454
0.0061005806 -0.13674441 0.61107117
0.046145931 -0.13561814 0.61186171
0.063149549 -0.13757825 0.61308318
0.081279755 -0.13749586 0.6117925
0.14257948 -0.13553178 0.61139899
0.16311891 -0.13716757 0.61260813
0.18085052 -0.13648526 0.61503273
-0.18273817 -0.1230077 0.61344594
-0.17039716 -0.12245003 0.61009526
-0.10173372 -0.12367845 0.61283863
-0.08747416 -0.12276238 0.61094695
-0.071527317 -0.12430945 0.61226434
-0.028656224 -0.1240669 0.61686909
-0.014205568 -0.12234859 0.61115277
0.0044498891 -0.12377548 0.61350656
0.047741335 -0.12384237 0.60780996
0.060855217 -0.12252221 0.6123091
0.081421435 -0.12360996 0.6086545
0.14685695 -0.12271934 0.61051613
0.15982363 -0.12266919 0.61247271
0.17757928 -0.12378859 0.61059099
-0.18904015 -0.15142854 0.6382975
-0.17021899 -0.15174305 0.64627886
-0.10269471 -0.15085524 0.64583653
-0.089137733 -0.15143548 0.64083701
-0.071205199 -0.15108547 0.64908218
-0.013810806 -0.15127201 0.64312524
0.00042338669 -0.15219003 0.64861357
0.062763117 -0.15155452 0.63969988
0.16206628 -0.15128163 0.64269096
0.18086302 -0.15174046 0.64164507
-0.2028268 -0.13908675 0.64286697
-0.18770832 -0.13710099 0.63822752
-0.1671719 -0.13803048 0.63636756
-0.10461623 -0.13769858 0.63844293
-0.087828159 -0.13683039 0.63723254
-0.06880901 -0.13807823 0.63714063
-0.030664427 -0.13750611 0.63724655
-0.012617751 -0.13612798 0.63750589
0.005962952 -0.13921267 0.63696128
0.046716623 -0.13544321 0.63589227
0.062679678 -0.1371388 0.63812989
0.082087256 -0.13899972 0.63872051
0.14682524 -0.1372073 0.63426369
0.1642891 -0.1367875 0.63766235
0.18289167 -0.13833727 0.6391117
-0.18246694 -0.12368207 0.63550836
-0.16881986 -0.12306461 0.63028282
-0.10168384 -0.12469959 0.63435304
-0.090353288 -0.12362642 0.63399822
-0.028195724 -0.12432107 0.6313405
-0.016311966 -0.12360623 0.63432062
0.06210354 -0.12390407 0.63548166
0.078314006 -0.12246983 0.63753259
0.16207173 -0.12367373 0.63307339
0.18057011 -0.12410067 0.6389975
-0.20443599 -0.15168199 0.66390032
