# .PCD v0.7 - Point Cloud Data file format
VERSION 0.7
FIELDS x y z
SIZE 4 4 4
TYPE F F F
COUNT 1 1 1
WIDTH 1395
HEIGHT 1
VIEWPOINT 0 0 0 1 0 0 0
POINTS 1395
DATA ascii
-0.14797206 -0.1687002 0.21217744
0.14090656 -0.17153496 0.21167938
0.16243993 -0.17098369 0.21357591
0.17999591 -0.17129679 0.21290979
-0.17737158 0.14494559 0.21273544
-0.1613265 0.14496019 0.21269961
-0.13833502 0.14493942 0.21288484
-0.11958236 0.14500615 0.21604608
0.11649671 0.1444771 0.21448237
0.13589101 0.14530556 0.21337686
0.1562286 0.14600503 0.21613859
-0.17696072 0.16449459 0.21755987
-0.16257551 0.16437049 0.21305449
-0.13574146 0.16610393 0.2131065
-0.11892867 0.16488498 0.21268016
0.11609637 0.16444886 0.21319422
0.13981077 0.16561557 0.21274953
0.15759501 0.16403231 0.21226999
-0.17772615 0.17775427 0.21223664
-0.15893914 0.1784109 0.20817648
-0.13835195 0.17830361 0.20936839
-0.11994866 0.17798001 0.20876326
0.11557497 0.17797729 0.20914915
0.13619229 0.17826155 0.20893203
0.15599328 0.17793198 0.20792861
-0.20022362 -0.20090383 0.23189825
-0.18646188 -0.20165297 0.23796239
-0.16471247 -0.20130497 0.2389513
0.14102833 -0.20312849 0.23759094
0.16148572 -0.20377918 0.23702718
0.18002062 -0.20326722 0.23696323
-0.20095922 -0.18372889 0.2331237
-0.18767022 -0.19028144 0.23844069
-0.16180475 -0.19164613 0.23748928
-0.1477998 -0.18710357 0.23893948
0.14057392 -0.18696612 0.23751301
0.16369611 -0.18839391 0.23778526
0.18086973 -0.18752442 0.2370149
-0.20067811 -0.16668656 0.23859216
-0.18639991 -0.16874915 0.23791163
-0.16314065 -0.16538982 0.23763795
-0.14787348 -0.16712789 0.23670296
0.14106329 -0.1710545 0.23694487
0.16216831 -0.17090146 0.23739308
0.18078348 -0.1715897 0.23937
-0.17665905 0.1484829 0.23916861
-0.16137789 0.140342 0.23810571
-0.1384224 0.13828829 0.23843406
-0.11982482 0.14149031 0.23666207
0.11762097 0.14102083 0.23838103
0.13798894 0.13873281 0.2384292
0.15774091 0.1412964 0.23862356
-0.17637597 0.1602809 0.23679811
-0.16178958 0.16322163 0.23710832
-0.13638987 0.16468571 0.23796667
-0.11936413 0.16094059 0.23515762
0.098408565 0.15089893 0.23853189
0.11650018 0.16230726 0.23785494
0.13725382 0.16585724 0.23675476
0.15706562 0.16118519 0.23699221
-0.16228849 0.17592382 0.22787052
-0.12509763 0.1770857 0.22673309
-0.20182379 -0.20091528 0.26640829
-0.18637846 -0.20165707 0.26311815
-0.16482805 -0.20134149 0.26243064
-0.1472545 -0.2010161 0.26238757
0.14100884 -0.20322806 0.2630586
0.16147447 -0.20376822 0.2623823
0.17936008 -0.20392008 0.26084977
-0.20121221 -0.19064078 0.26225874
-0.18738888 -0.19071914 0.26223797
-0.16133937 -0.19228907 0.26242781
-0.14783774 -0.188152 0.26237828
0.14133792 -0.18717554 0.26254719
0.16097862 -0.18738982 0.26252195
0.18131824 -0.18917309 0.26179674
-0.2010309 -0.17217177 0.26258686
-0.1857322 -0.16782242 0.26164675
-0.16115189 -0.16589028 0.26243442
-0.14789526 -0.16960967 0.26218647
0.14155574 -0.17170212 0.26227641
0.16244294 -0.17099465 0.26309294
0.18042557 -0.17158322 0.26314226
-0.16524921 0.1247313 0.26734141
-0.14889871 0.12486041 0.26677251
0.11422278 0.12308347 0.27471095
0.1375498 0.12385324 0.27296814
-0.17730752 0.14094332 0.26151252
-0.16157185 0.13637088 0.26370165
-0.13593881 0.13324401 0.2628991
-0.11902897 0.13741806 0.26337692
0.099084094 0.12678325 0.27273604
0.11808607 0.13731819 0.26322779
0.13884063 0.13376385 0.26263541
0.15694021 0.13775918 0.26229173
-0.1772836 0.16010977 0.25832587
-0.16114242 0.15773819 0.26163819
-0.13776873 0.15862674 0.26318985
-0.11955324 0.15624665 0.26237598
0.11551283 0.15775484 0.26146707
0.13784826 0.15949126 0.26176998
0.15677834 0.15728655 0.26111448
-0.18666993 -0.20163138 0.28802595
-0.16341478 -0.20125581 0.28725377
0.14123243 -0.20377633 0.28849682
0.1618486 -0.20371948 0.28779483
0.17991814 -0.20354724 0.28882685
-0.20128831 -0.18741244 0.28649628
-0.18757762 -0.19077498 0.2872887
-0.16231632 -0.1929553 0.28677809
-0.14761113 -0.18626833 0.28763381
0.13979885 -0.18700919 0.28743395
0.16449203 -0.18638377 0.28809273
0.18076605 -0.18875283 0.2864123
-0.20136185 -0.17301565 0.29614142
-0.18679012 -0.16812339 0.28694141
-0.16232939 -0.16620722 0.28689444
-0.1477806 -0.16796495 0.28831506
0.14295267 -0.17179067 0.28786454
0.16256891 -0.17083849 0.28692272
0.17994016 -0.1715782 0.28748038
-0.16080999 0.12304849 0.29051352
-0.13897446 0.1227817 0.29144809
-0.12249526 0.12285912 0.29545769
0.11648957 0.1223315 0.28854528
0.13770671 0.12254182 0.29060322
0.15564133 0.1225735 0.29526407
-0.17716208 0.13851602 0.29332021
-0.16284095 0.13650508 0.2874327
-0.13664688 0.13508551 0.2872102
-0.11910506 0.13550769 0.28797716
0.11738194 0.13789566 0.2874068
0.1389116 0.13342012 0.28729108
0.15719923 0.13617356 0.28772339
-0.17687441 0.15459643 0.28538415
-0.16090378 0.15374507 0.28722104
-0.13779975 0.15438977 0.28657183
-0.11943847 0.15387264 0.28424403
0.11557467 0.15473105 0.28548536
0.13693692 0.15431626 0.28683063
0.15703066 0.1538204 0.2857472
-0.1854558 -0.20135716 0.31409481
-0.16449991 -0.20119214 0.31054941
-0.14849219 -0.20100296 0.30240348
0.14283729 -0.20349871 0.31184819
0.16125737 -0.20389086 0.31173062
0.17997663 -0.20401916 0.31142396
-0.20125686 -0.18816221 0.30824643
-0.18770625 -0.19015272 0.31255853
-0.16066229 -0.19252683 0.31188893
-0.14767875 -0.18665738 0.31225213
0.141404 -0.18788184 0.31235704
0.16306865 -0.18871993 0.31231597
0.18107243 -0.18821342 0.31240416
-0.2006184 -0.16770256 0.30355218
-0.18681231 -0.16788113 0.312621
-0.16241583 -0.1658517 0.31051344
-0.14754044 -0.1691317 0.31232914
0.14245366 -0.17147839 0.31273529
0.16357598 -0.17076348 0.31309786
0.18013194 -0.17114209 0.3113265
-0.17717884 0.12152104 0.31541404
-0.16017514 0.11989416 0.31301874
-0.13782516 0.1195912 0.31232718
-0.11970854 0.12138023 0.31163707
0.11964031 0.12114247 0.31346044
0.13838917 0.12055668 0.3120223
0.15618581 0.12086862 0.31395575
-0.17620517 0.14483871 0.3179386
-0.16292839 0.13934068 0.31285232
-0.13720185 0.14361867 0.31358907
-0.11917402 0.13836499 0.31272644
0.11713919 0.13925967 0.31283104
0.13791747 0.14326024 0.31380102
0.15728612 0.13856529 0.31210124
-0.17565012 0.15267378 0.30418873
-0.16156736 0.15188785 0.30731082
-0.13732371 0.15183401 0.30913946
-0.11943108 0.15192211 0.30620819
0.11416455 0.15142104 0.3098771
0.13811627 0.15183808 0.30892026
0.1548814 0.15193959 0.30702487
-0.18733756 -0.20169437 0.33693597
-0.16470794 -0.20125909 0.33747393
0.14242861 -0.20347357 0.337069
0.16189876 -0.20370573 0.33669859
0.18048789 -0.20365371 0.33547464
-0.20147453 -0.19200048 0.34163567
-0.18790631 -0.19056427 0.33761379
-0.16221958 -0.19317049 0.3375501
-0.1478097 -0.18589292 0.3390418
0.14114711 -0.18679206 0.33732563
0.16348273 -0.18655743 0.33738166
0.1812456 -0.18703952 0.33826929
-0.20157896 -0.1719254 0.33395803
-0.18612017 -0.16796778 0.33759466
-0.16215371 -0.16584925 0.33743697
-0.14770031 -0.16907871 0.33704263
0.14360975 -0.17137378 0.33690286
0.16094138 -0.17088164 0.33690643
0.18039429 -0.17116436 0.33699229
-0.17684965 0.11979815 0.34395036
-0.16207226 0.11649681 0.33803332
-0.13794272 0.1153678 0.33728033
-0.11918465 0.11718639 0.33924147
0.11829519 0.1168387 0.33760941
0.13870788 0.11554884 0.33754623
0.15679677 0.11742064 0.33770427
-0.17699569 0.13770509 0.33800626
-0.16175891 0.13749336 0.33767545
-0.13740227 0.14114213 0.3366999
-0.11904322 0.13714927 0.33713982
0.1173228 0.13889313 0.33846095
0.13859016 0.1410124 0.33735254
0.15734942 0.13763006 0.33675429
-0.16273969 0.15076815 0.32888985
-0.13394004 0.15017632 0.33034527
-0.18602309 -0.20149609 0.36383337
-0.16441236 -0.20138256 0.36345762
-0.14762083 -0.20097893 0.35251382
0.14034678 -0.20373063 0.36140704
0.16188402 -0.20391767 0.36295226
0.18012331 -0.20396613 0.36472476
-0.20038271 -0.19061527 0.36108074
-0.18768513 -0.18988244 0.3618049
-0.16147068 -0.19236837 0.36252257
-0.14752191 -0.18705575 0.36326408
0.1414011 -0.18584941 0.36241704
0.16384786 -0.18777969 0.36182138
0.18108468 -0.1882482 0.36175784
-0.20086485 -0.17216623 0.3684473
-0.18474564 -0.16733205 0.36229405
-0.16156678 -0.16576992 0.3630529
-0.14781678 -0.16854669 0.36072135
0.14252976 -0.17136648 0.36198515
0.16223732 -0.17068617 0.36170381
0.18028063 -0.17117076 0.36186117
-0.17633069 0.12342063 0.36915994
-0.16204329 0.11303601 0.36207917
-0.13669173 0.11130375 0.36143708
-0.11935084 0.11467865 0.36424783
0.11772516 0.11562831 0.36239302
0.13867016 0.11197693 0.36179233
0.15647256 0.11463073 0.36217228
-0.17590737 0.13877398 0.36598837
-0.16222617 0.13400784 0.36152741
-0.13668041 0.13615729 0.3627677
-0.11874671 0.13351756 0.36385468
0.11666366 0.13507952 0.36156261
0.13774818 0.13686013 0.36237317
0.15752044 0.13323244 0.36126119
-0.20129409 -0.20096278 0.38764858
-0.18675326 -0.20175794 0.38937995
-0.16409279 -0.20128867 0.38691443
0.14262013 -0.20385049 0.38653952
0.16218108 -0.20394771 0.3869836
0.1804156 -0.20430718 0.38824436
-0.2010953 -0.18975963 0.38272768
-0.18686752 -0.19032976 0.38714722
-0.16078238 -0.19305864 0.38713515
-0.14749855 -0.18612909 0.38901049
0.14242299 -0.18772829 0.38884217
0.16289279 -0.1864693 0.3875438
0.18103118 -0.1875087 0.38754439
-0.18530768 -0.1683488 0.38626128
-0.16220659 -0.16620263 0.38679641
-0.1474902 -0.16879177 0.38769126
0.14554153 -0.1723575 0.38740408
0.16178374 -0.17078547 0.38656539
0.18138728 -0.17079087 0.38732383
0.1263452 0.099749148 0.39788502
-0.1620833 0.11207724 0.38768047
-0.13713495 0.10768765 0.38698763
-0.11821139 0.11402561 0.38791722
0.11876232 0.11110415 0.38750097
0.13850473 0.10826138 0.3873522
0.15731196 0.11186966 0.38734493
-0.17796786 0.13120931 0.37839723
-0.16215645 0.13096054 0.38640711
-0.13716362 0.13259375 0.38698488
-0.11943156 0.13205405 0.38877332
0.1182689 0.1318302 0.38648704
0.13845761 0.13224398 0.38630804
0.15708919 0.13093424 0.38688469
-0.23050992 -0.22681017 0.4180204
-0.21108437 -0.22896668 0.41791081
-0.1859116 -0.23313442 0.41851902
-0.1632145 -0.23648858 0.41914782
-0.13766617 -0.23857662 0.41876084
-0.11226682 -0.23878473 0.41979894
-0.088394351 -0.23943447 0.41971081
-0.062221028 -0.24029356 0.42090648
-0.039033595 -0.24080497 0.41952926
-0.012861228 -0.24073213 0.41929629
0.012156635 -0.24048218 0.42021054
0.038881086 -0.24032892 0.41835386
0.062845156 -0.23937343 0.41926339
0.087070897 -0.23940119 0.41978726
0.11370585 -0.23831384 0.42012998
0.13643514 -0.23817772 0.41800705
0.16119587 -0.23657593 0.4190284
0.18870287 -0.23183089 0.41960439
0.21205831 -0.22830367 0.41967779
-0.23667575 -0.21184413 0.41897374
-0.22049423 -0.22256194 0.42110801
-0.18686081 -0.20202896 0.40960237
-0.16579254 -0.20134507 0.41321814
-0.14673302 -0.20096254 0.40344438
0.14270282 -0.204761 0.41066363
0.16140713 -0.20417531 0.41048628
0.18101972 -0.20349906 0.40945363
0.21379705 -0.22304109 0.41666842
0.23751935 -0.21090774 0.4200215
-0.25250736 -0.18586238 0.42103219
-0.24096385 -0.1865159 0.41745687
-0.18467928 -0.18820843 0.41022816
-0.16208278 -0.19426209 0.41031098
-0.14824976 -0.18721382 0.41111475
0.14182916 -0.1860697 0.40696207
0.15909269 -0.18764986 0.40986738
0.18098193 -0.18837686 0.41313386
0.23889294 -0.18799148 0.41747779
-0.25123715 -0.16498911 0.41907638
-0.24227545 -0.16233675 0.41765776
-0.18313973 -0.16715783 0.40990809
-0.16231768 -0.16557746 0.41162932
-0.14766295 -0.16672125 0.41182056
0.14283875 -0.1715219 0.41295776
0.16339561 -0.17062806 0.41116944
0.18004505 -0.17099205 0.41193756
0.22243616 -0.17143869 0.42468089
0.24032414 -0.16532838 0.41877559
-0.25171408 -0.13574669 0.42401177
-0.24101904 -0.13752829 0.41850489
0.22088769 -0.14241052 0.41905016
0.24000958 -0.1392895 0.41985455
-0.25114903 -0.11390555 0.42158094
-0.24046624 -0.11175913 0.41855225
0.23859318 -0.11274844 0.41993335
-0.25020418 -0.096951723 0.41741979
-0.23959923 -0.087836802 0.41850162
0.23563822 -0.085791938 0.41907942
-0.23695116 -0.063775294 0.41878629
0.22490686 -0.067485988 0.42499727
0.23471853 -0.060632918 0.42093274
-0.23605062 -0.0374933 0.4177658
-0.22443858 -0.044705003 0.42363515
0.22220209 -0.038308144 0.42329326
0.23249102 -0.036391217 0.41972661
-0.23307334 -0.012743328 0.41701633
-0.22294383 -0.011823023 0.42028236
0.22316918 -0.012858689 0.41947809
0.23112844 -0.011267898 0.41874528
-0.23145008 0.011844265 0.41754958
-0.22154768 0.01454287 0.42001289
0.21774957 0.013202252 0.41774714
0.22908354 0.010029137 0.41616011
-0.23042674 0.035290673 0.41903269
-0.2193086 0.037938647 0.41901028
0.21650624 0.038008492 0.41746587
0.22629331 0.027438048 0.41443771
-0.227594 0.053545669 0.42044199
-0.21336623 0.063524574 0.41846913
0.2126147 0.061111916 0.41818634
-0.20878586 0.087801024 0.41906273
-0.19624399 0.094750233 0.4195185
-0.16011071 0.09813869 0.41040343
-0.14033063 0.098834634 0.41617694
0.11668811 0.098752461 0.41032967
0.13882302 0.098626792 0.41029
0.19183509 0.093560517 0.41750768
0.20693134 0.084611565 0.41917551
-0.2044566 0.10680226 0.41714001
-0.19009598 0.11537223 0.41902161
-0.16070224 0.11147289 0.41098836
-0.13704231 0.10604762 0.41045198
-0.11912767 0.11176746 0.41294563
0.11974516 0.11362382 0.41031602
0.13754693 0.10567952 0.40999091
0.15775952 0.11219239 0.41329229
0.19207896 0.11194674 0.41738474
0.20227416 0.10381174 0.42205712
-0.20606177 0.13824096 0.42190114
-0.18664923 0.13587952 0.42047814
-0.16233376 0.13419257 0.41424844
-0.1368653 0.13116916 0.41202992
-0.12066604 0.12886654 0.41190216
0.1180322 0.13056509 0.40956554
0.13654922 0.13075781 0.41174388
0.15774408 0.13082606 0.41204375
0.18371797 0.13731487 0.42040613
-0.1828225 0.1537493 0.42245886
-0.16082752 0.16133448 0.41880238
-0.14146152 0.16739956 0.42008051
-0.11047449 0.16245909 0.4233464
-0.091094032 0.16008113 0.42257237
-0.07065703 0.17171732 0.42298737
-0.045919877 0.17090335 0.42193842
-0.011697501 0.1711939 0.42332849
0.0097043812 0.17110863 0.4229278
0.040619783 0.17245451 0.42343593
0.064466834 0.17097624 0.42202291
0.085810624 0.16677459 0.4223313
0.11382677 0.16075291 0.42195293
0.13819051 0.16500044 0.42026603
0.16067784 0.15963204 0.41945258
-0.15070701 0.17583507 0.41536957
-0.13183255 0.18150213 0.41908261
-0.11234002 0.18800676 0.41891134
-0.088986985 0.1942714 0.4187451
-0.069753498 0.19034454 0.42230007
-0.039312862 0.18998805 0.42322627
-0.01185648 0.18292643 0.42278874
0.010137062 0.19001742 0.42278886
0.037615776 0.18649885 0.42235222
0.068788081 0.19405499 0.42072964
0.090585768 0.19361357 0.4196232
0.11145014 0.1856169 0.41777536
0.13049071 0.17968222 0.41550231
-0.087605268 0.2010622 0.41981143
-0.061166123 0.20677793 0.41996342
-0.039378364 0.2109258 0.41910124
-0.014858667 0.21110845 0.41894293
0.012926136 0.21121545 0.41806599
0.037597757 0.21119681 0.41861796
0.061733391 0.2059191 0.41805223
0.083620086 0.20060346 0.42340547
-0.23068547 -0.22723183 0.43876132
-0.21098195 -0.22938007 0.43713835
-0.18798774 -0.23295335 0.43741873
-0.16300844 -0.23647207 0.43797117
-0.13725388 -0.23841193 0.43763816
-0.1128029 -0.23901753 0.4372381
-0.087846614 -0.23969342 0.43848318
-0.062132042 -0.24018149 0.43869352
-0.037939865 -0.24046324 0.43794531
-0.013023366 -0.24071008 0.43857577
0.012936801 -0.24062862 0.43847412
0.037275292 -0.24050295 0.43874362
0.062380396 -0.24002235 0.43799198
0.087027021 -0.23927651 0.43820098
0.1121643 -0.23880608 0.43814376
0.13733754 -0.23790427 0.43856907
0.16203715 -0.23578912 0.4386521
0.18697281 -0.2319432 0.43883231
0.21032146 -0.22831528 0.43886328
0.22675778 -0.22656499 0.43736374
-0.25096056 -0.20478816 0.44145352
-0.23689534 -0.21262629 0.43750504
-0.21727684 -0.22029142 0.43812954
-0.16220319 -0.20094335 0.42868829
0.15982732 -0.20321897 0.42688221
0.18022038 -0.20297024 0.42862141
0.21755928 -0.21830599 0.44039792
0.23373006 -0.21129161 0.43791071
-0.25205603 -0.18609391 0.43725827
-0.24005263 -0.18785477 0.43762511
-0.1771833 -0.18925419 0.42964154
-0.1572693 -0.18882 0.43070894
-0.14725474 -0.18521792 0.43032807
0.17141268 -0.18820852 0.42792052
0.18061319 -0.1867691 0.42859727
0.22369175 -0.18858501 0.44052592
0.23709396 -0.18700409 0.43829271
-0.25220636 -0.16143154 0.4381642
-0.24045667 -0.1622887 0.43738827
-0.18024564 -0.16494894 0.42995921
-0.16136783 -0.16622882 0.4324691
-0.14772326 -0.16762464 0.43232664
0.14465097 -0.17230386 0.42784539
0.1611591 -0.17038651 0.42879438
0.18206346 -0.17220826 0.42775571
0.22298832 -0.15893602 0.44262323
0.23786491 -0.16224831 0.43830535
-0.25223932 -0.1419591 0.43632466
-0.23931959 -0.13812847 0.43725201
0.22222075 -0.13728397 0.4409098
0.23664387 -0.13712955 0.43841934
-0.25068501 -0.11675901 0.43878359
-0.23831548 -0.11316028 0.43769437
0.22220759 -0.11228288 0.43958262
0.23584619 -0.11252098 0.43844956
-0.25075218 -0.084831692 0.4470385
-0.23693474 -0.087206595 0.43826935
0.22142252 -0.086860478 0.43940839
0.23438558 -0.087525003 0.43823403
-0.23514974 -0.062441535 0.43767691
-0.22356619 -0.05455162 0.43908539
0.2212026 -0.062299207 0.44107839
0.23310845 -0.062472273 0.43932623
-0.23449475 -0.036568053 0.43802789
-0.22357699 -0.035587005 0.43993363
0.21954826 -0.03734247 0.44038954
0.23159988 -0.037510689 0.43982193
-0.23328851 -0.011756112 0.43796483
-0.22259766 -0.010687991 0.44028416
0.21922927 -0.011042328 0.44079763
0.23061255 -0.013521657 0.43857202
-0.23274784 0.011250555 0.43850383
-0.22092153 0.013667419 0.43902591
0.21735039 0.013545779 0.44000646
0.22946894 0.010559356 0.43955231
-0.22925113 0.035111737 0.43680331
-0.21701148 0.038016692 0.43849367
0.19912428 0.048852205 0.44949436
0.21518359 0.038419444 0.43898866
0.22634359 0.031452857 0.43812147
-0.22659642 0.058865026 0.44267818
-0.21178287 0.062984243 0.43817499
-0.199846 0.06810689 0.42737731
0.19691929 0.066935748 0.43946934
0.20995155 0.061604466 0.43982053
-0.20800599 0.08678554 0.43938166
-0.19624713 0.092303663 0.43846804
0.19313794 0.088440076 0.43843818
0.20580892 0.086556695 0.43889773
-0.2041046 0.10849541 0.43676272
-0.19052441 0.11289112 0.43734545
-0.16612013 0.12242514 0.43381217
-0.13115482 0.11797244 0.43307307
-0.11784893 0.11399671 0.42843029
0.13957031 0.10161134 0.42778671
0.16337195 0.11570024 0.43100429
0.18810387 0.1120019 0.43935663
0.2014692 0.10422371 0.43710065
-0.20562202 0.13957407 0.43750545
-0.18804342 0.13846321 0.43727708
-0.16361515 0.13566485 0.43560249
-0.13907626 0.14006199 0.43438214
-0.1174062 0.13803464 0.43668222
0.11923185 0.13311867 0.4325386
0.14117211 0.13568856 0.43566027
0.16544332 0.13762183 0.43625215
0.18424141 0.13858919 0.43813369
-0.20023321 0.15034667 0.43727022
-0.18400256 0.15340342 0.43929175
-0.16195956 0.16062424 0.43808758
-0.13939601 0.16691315 0.437123
-0.11289855 0.16171204 0.43667892
-0.08914651 0.16482385 0.43628863
-0.062101137 0.16965255 0.43601531
-0.035724837 0.17049541 0.4360832
-0.012225603 0.17099081 0.43504986
0.013236144 0.17039175 0.43576837
0.037903573 0.17016439 0.43665615
0.062036179 0.17003655 0.43409756
0.08918944 0.16737656 0.43573925
0.11370678 0.16507117 0.43632767
0.13812611 0.1653337 0.43688068
0.16035298 0.15849669 0.43859741
0.17955026 0.15376128 0.44055828
-0.15234521 0.17539331 0.44008276
-0.13271895 0.1803644 0.43786404
-0.11213175 0.18740404 0.43815631
-0.088008985 0.19218498 0.43737233
-0.063626714 0.18759581 0.43587795
-0.037480552 0.18568297 0.43584785
-0.013710767 0.18626237 0.43544281
0.012700354 0.18588924 0.43621269
0.037415195 0.18602638 0.43474796
0.064669184 0.18936585 0.43661144
0.088082746 0.19067025 0.43724743
0.11099358 0.18525034 0.43782312
0.1307815 0.17924783 0.43787542
-0.082801074 0.20212843 0.43628481
-0.061204348 0.20692256 0.43815994
-0.037167143 0.21089496 0.43876171
-0.012949619 0.2116197 0.43861663
0.012214417 0.21170445 0.43948215
0.03675878 0.21067382 0.43814173
0.060049433 0.20557645 0.43950638
0.081180885 0.20098598 0.43406773
-0.23114315 -0.22801776 0.45922309
-0.21105386 -0.22909263 0.45986763
-0.18756959 -0.23158011 0.4614383
-0.16250066 -0.23459077 0.46151483
-0.13751541 -0.23622772 0.46098271
-0.11201102 -0.23671962 0.46187067
-0.087089784 -0.2374019 0.46255878
-0.061800014 -0.23770598 0.46293449
-0.037449148 -0.23830383 0.46276295
-0.01288787 -0.23889987 0.4621934
0.01278919 -0.23826602 0.46276706
0.037551954 -0.238728 0.46227083
0.062484469 -0.2374513 0.46236604
0.087430887 -0.23727173 0.46210694
0.11268385 -0.2371074 0.4619776
0.13710637 -0.23609939 0.46263152
0.16328195 -0.23394684 0.46244279
0.18749596 -0.231249 0.4611322
0.20993078 -0.22822948 0.45997247
0.22613829 -0.22686757 0.45708641
-0.23436643 -0.21101269 0.46119323
-0.2152607 -0.21639805 0.46660101
-0.18952404 -0.21950571 0.47026572
-0.16345833 -0.22135769 0.47172132
-0.13503319 -0.22058296 0.472381
-0.11221766 -0.21989568 0.47347671
-0.086348228 -0.22113623 0.47312641
-0.059608877 -0.22102268 0.47354323
-0.035555948 -0.22201672 0.47287521
-0.0082177846 -0.22153668 0.47268635
0.017725073 -0.21974558 0.47320837
0.039439611 -0.22044711 0.47357762
0.061925635 -0.22005296 0.47267249
0.087721899 -0.21962605 0.47183278
0.10952736 -0.22039907 0.4723019
0.13906673 -0.21795063 0.47210306
0.16305912 -0.21900091 0.47138014
0.18879864 -0.21945547 0.4689714
0.21516272 -0.21519831 0.46520412
0.23233196 -0.21007924 0.46013159
-0.2510508 -0.18423536 0.45547542
-0.23720306 -0.18780798 0.46247724
-0.22056791 -0.18931848 0.47183269
0.17332214 -0.19972408 0.47327173
0.19428277 -0.18499136 0.47267514
0.21925096 -0.18854232 0.46807975
0.23453563 -0.18749446 0.46113551
-0.25183335 -0.16328304 0.45643029
-0.23714437 -0.16273965 0.46287632
-0.22081882 -0.16086242 0.47209775
0.21935767 -0.16334903 0.46790764
0.23494437 -0.16289625 0.46137127
-0.25235587 -0.14200929 0.45560816
-0.23666222 -0.13741893 0.46217602
-0.22047047 -0.13498364 0.47153181
0.19709587 -0.14383966 0.47428307
0.21814495 -0.13693137 0.46796596
0.23418646 -0.13742572 0.46100944
-0.25197038 -0.11946343 0.45505488
-0.23480292 -0.1129161 0.46245217
-0.21886764 -0.11208475 0.47097668
0.19506288 -0.11771703 0.47460112
0.21896216 -0.11178175 0.46683526
0.23336448 -0.1129465 0.46068826
-0.25016928 -0.096918404 0.45011488
-0.23504367 -0.087814093 0.46137285
-0.22044042 -0.085954562 0.46945164
0.19306588 -0.092055082 0.47491375
0.21905924 -0.087415285 0.46522379
0.23293476 -0.087158971 0.4604978
-0.23369297 -0.062961273 0.46132576
-0.2202431 -0.061005939 0.4676536
0.21753061 -0.061833423 0.46548599
0.23131184 -0.062787674 0.46010807
-0.23320483 -0.037884749 0.46099484
-0.21900085 -0.037389331 0.46743566
0.1946429 -0.041920468 0.47488564
0.21757089 -0.036830887 0.4652496
0.23036267 -0.037744716 0.46018407
-0.23176788 -0.013175657 0.46103713
-0.21817949 -0.011715982 0.46673015
0.18907082 -0.01956898 0.47466978
0.2150894 -0.011945266 0.4650315
0.22915855 -0.013837485 0.46041951
-0.23079282 0.010634931 0.46069336
-0.21697791 0.012414114 0.46529192
-0.19795072 0.013953865 0.47431108
0.19414341 0.012813926 0.4731352
0.21603493 0.01181216 0.46346289
0.22829708 0.0085509568 0.45992127
-0.22906506 0.033121623 0.45987138
-0.21432966 0.037317488 0.46434388
-0.1969244 0.040933233 0.47282842
0.19358231 0.039502148 0.47166571
0.21262375 0.036553822 0.46237212
0.22610004 0.031218754 0.45850202
-0.23054478 0.052766666 0.45874321
-0.21034519 0.06155996 0.46123385
-0.19679935 0.067206904 0.46778697
0.16945362 0.064054072 0.47458851
0.19364147 0.064660467 0.4655953
0.20795962 0.061958008 0.46094397
-0.20641434 0.085625447 0.46180844
-0.1929756 0.089717463 0.46516258
0.1704444 0.093770929 0.47254539
0.19066751 0.088549942 0.46497017
0.20493002 0.08502306 0.4603363
-0.20368458 0.10656263 0.45994121
-0.18750711 0.11175574 0.46268201
-0.16918859 0.11665224 0.47105029
0.16973844 0.11480021 0.46667981
0.18630666 0.1114492 0.46256039
0.2019361 0.10337748 0.45531014
-0.20501395 0.14195012 0.4620536
-0.18762651 0.13796689 0.4617984
-0.16240287 0.13662085 0.46523976
-0.14416295 0.14032149 0.46852398
0.14241402 0.14328775 0.46713635
0.16634455 0.1351179 0.46365944
0.18376453 0.13976775 0.46099529
-0.18405358 0.15353356 0.46357232
-0.16194855 0.15850772 0.46182525
-0.1396632 0.16512564 0.46310219
-0.11115435 0.16163217 0.46315596
-0.092224032 0.16350816 0.46489826
-0.066673361 0.16930342 0.45173088
-0.041792542 0.16918002 0.45235902
0.023882329 0.16672105 0.45154619
0.069165915 0.17004055 0.47422147
0.090738669 0.16615672 0.46486041
0.11401588 0.16454324 0.46491754
0.1379627 0.16410752 0.46255213
0.16231985 0.15658949 0.46243277
0.18063052 0.1537215 0.46299979
-0.13412581 0.17974849 0.462479
-0.11165275 0.18748537 0.46210226
-0.087718472 0.19291385 0.46461076
-0.064472899 0.19397192 0.46710515
-0.038619749 0.19496951 0.47181463
-0.0076066004 0.19406554 0.47180259
0.013694796 0.19462636 0.47235432
0.038765982 0.19440515 0.4713459
0.064533047 0.19430587 0.46548885
0.087917611 0.19102347 0.46320531
0.11107102 0.1851033 0.46159527
0.13051283 0.17823254 0.46298414
-0.080292404 0.20293319 0.4585495
-0.060741987 0.20623572 0.46114814
-0.037358265 0.20917541 0.46232131
-0.012944672 0.20953314 0.46181116
0.012824712 0.20962827 0.46221083
0.037941076 0.20894444 0.4616259
0.059751481 0.20507571 0.45991197
0.081247486 0.20144168 0.45893368
-0.20906407 -0.2269792 0.4786728
-0.18561608 -0.22938389 0.4792304
-0.16217478 -0.23051614 0.48095012
-0.13724731 -0.23132016 0.48059228
-0.11315233 -0.23079614 0.48175088
-0.087311558 -0.23119946 0.48218384
-0.062993668 -0.23173694 0.48255208
-0.037779436 -0.23169257 0.48231208
-0.012759523 -0.23160969 0.48266834
0.012708654 -0.23243371 0.48226443
0.037793081 -0.23164184 0.48270911
0.062657624 -0.23184691 0.48206505
0.08750236 -0.23110607 0.48199832
0.11213721 -0.23110345 0.48136386
0.13717943 -0.23099475 0.48105216
0.16135186 -0.2296003 0.48054406
0.18594681 -0.22791658 0.47953883
0.20441946 -0.22690482 0.47797108
-0.23157284 -0.20804814 0.48041248
-0.21117429 -0.21055898 0.48371693
-0.18721566 -0.21183258 0.48496574
-0.16275664 -0.21213795 0.48558128
-0.13708964 -0.21240616 0.48673758
-0.11221297 -0.21264876 0.48667082
-0.087723963 -0.21232682 0.48743752
-0.062092133 -0.21312267 0.48699531
-0.037771381 -0.21283451 0.48740938
-0.013239169 -0.21254021 0.48773909
0.012744301 -0.21228416 0.48724943
0.03743355 -0.21255706 0.48727715
0.062088057 -0.21247447 0.48729539
0.087409802 -0.21293461 0.48725709
0.11286516 -0.21265389 0.48670968
0.13690349 -0.21302037 0.48682365
0.16213888 -0.2121059 0.48629656
0.18738589 -0.21118386 0.48542389
0.2112785 -0.21058325 0.48229021
0.22902651 -0.20522895 0.47758454
-0.23270836 -0.18722852 0.48215717
-0.21128012 -0.18781623 0.48562187
-0.18725106 -0.18844436 0.48927876
-0.16243988 -0.18805863 0.48979715
-0.13797826 -0.18773715 0.49060401
-0.11254236 -0.18682589 0.49058288
-0.087914281 -0.18748358 0.49048427
-0.062186502 -0.18820551 0.49097773
-0.037326287 -0.18716806 0.49068519
-0.013587748 -0.18684757 0.49133891
0.013199802 -0.1871186 0.49066851
0.036518738 -0.18764171 0.49107191
0.062974155 -0.18780924 0.49112633
0.0877681 -0.18821628 0.49057075
0.11257303 -0.18789497 0.49063492
0.13720816 -0.18788931 0.4907884
0.16257544 -0.188023 0.49020222
0.18822484 -0.18738943 0.48935667
0.21163625 -0.1881265 0.48527056
0.22999305 -0.18609019 0.47872531
-0.23344937 -0.16261677 0.48235613
-0.21205419 -0.16325353 0.48695624
-0.18788905 -0.162828 0.49030542
-0.16288215 -0.16253407 0.49165684
-0.13751641 -0.16286193 0.49130312
-0.11303363 -0.16238941 0.49194601
-0.087319538 -0.1624715 0.49131486
-0.061773103 -0.16292472 0.49173445
-0.037670244 -0.16195905 0.49096847
-0.013297827 -0.16186269 0.49206197
0.014149109 -0.16271664 0.49156955
0.037460469 -0.1629779 0.49144414
0.062683888 -0.16247942 0.49156269
0.087458074 -0.16274546 0.49117008
0.11324587 -0.16239458 0.49164954
0.13734743 -0.16244592 0.49152198
0.16371439 -0.16318366 0.4916198
0.18778497 -0.16249199 0.49103031
0.21119496 -0.16299985 0.48583624
0.23000488 -0.16202649 0.4786821
-0.23268782 -0.13924465 0.48277506
-0.21231931 -0.13721542 0.48672977
-0.18739457 -0.13756195 0.49056479
-0.16157253 -0.13641456 0.49208811
-0.13714895 -0.13770568 0.49226302
-0.11284339 -0.13748047 0.49199781
-0.087511912 -0.13699336 0.4912385
-0.061821062 -0.13720606 0.49189356
-0.037511792 -0.13687918 0.49140859
-0.013459909 -0.13767888 0.49163929
0.013423339 -0.13754521 0.4906542
0.036590032 -0.13737318 0.49128467
0.063188322 -0.13685757 0.49156952
0.087981962 -0.13749972 0.49160233
0.11300055 -0.1371233 0.49183849
0.13763028 -0.13700114 0.49160871
0.1614217 -0.13738249 0.49203944
0.18768819 -0.13759835 0.49038696
0.21126124 -0.13772322 0.48604092
0.22950427 -0.13802919 0.4791359
-0.23239605 -0.11351458 0.48253685
-0.21185122 -0.11275121 0.48629856
-0.18735866 -0.11231945 0.49015775
-0.16188879 -0.11251719 0.49163043
-0.13770375 -0.1122019 0.49131957
-0.11221179 -0.11195622 0.49172574
-0.087660223 -0.11218911 0.49124789
-0.061577816 -0.11217514 0.49187672
-0.03745079 -0.11240466 0.49115518
-0.012991983 -0.11241499 0.49211121
0.01447902 -0.11205441 0.49133548
0.037397467 -0.11167926 0.49106768
0.062674828 -0.11208469 0.49145329
0.088107362 -0.11217351 0.49106354
0.112804 -0.1117376 0.49140039
0.1367745 -0.11225597 0.49182498
0.16288988 -0.11235829 0.49189496
0.18831861 -0.1125803 0.49008673
0.21120226 -0.11308931 0.48542914
0.22866271 -0.11371908 0.47918525
-0.23159629 -0.088637248 0.48214117
-0.21209261 -0.08755406 0.48603353
-0.18707128 -0.088156737 0.49063978
-0.16173297 -0.08740364 0.49174523
-0.13745385 -0.086913146 0.49154299
-0.11245119 -0.087501116 0.49209878
-0.087309912 -0.08781033 0.49105719
-0.061885655 -0.087609127 0.49163535
-0.037195202 -0.088099979 0.49094182
-0.013565025 -0.088567495 0.49180812
0.013399798 -0.087657921 0.49085137
0.036841746 -0.087135158 0.4917585
0.063057713 -0.087879851 0.49192405
0.087308563 -0.087901138 0.49137214
0.11254235 -0.087056927 0.49184248
0.13766038 -0.087077081 0.49176547
0.16241249 -0.086988255 0.49168941
0.18785751 -0.088193737 0.48991922
0.21132433 -0.088178381 0.48404536
0.22738738 -0.088392317 0.47896433
-0.23083359 -0.06239932 0.48217425
-0.21136808 -0.062146544 0.48581091
-0.18722273 -0.062649809 0.49014243
-0.16166702 -0.06291417 0.49171427
-0.13758118 -0.062387399 0.49128741
-0.11207177 -0.062419094 0.49201828
-0.0882736 -0.06242552 0.49135008
-0.061670724 -0.061033856 0.49166086
-0.037345871 -0.061818715 0.49101353
-0.013539312 -0.062020544 0.49183941
0.013580076 -0.061596029 0.49101371
0.036705781 -0.061304793 0.49151224
0.063269898 -0.061974738 0.49191153
0.087451324 -0.062598445 0.49112052
0.11249673 -0.062186066 0.4920699
0.13767959 -0.062596589 0.49189153
0.16245967 -0.06200486 0.49164274
0.18847883 -0.062142923 0.48931211
0.21087198 -0.062635191 0.48432088
0.22724535 -0.064467929 0.47782502
-0.22957617 -0.036547367 0.48082313
-0.21134244 -0.037250299 0.48535866
-0.18743473 -0.037273031 0.48919147
-0.16161697 -0.037942532 0.49140403
-0.13826118 -0.03749023 0.49108967
-0.11236461 -0.038272314 0.49197054
-0.08737053 -0.037784938 0.49081349
-0.06193221 -0.037285008 0.49122411
-0.03750404 -0.037167959 0.49081001
-0.013460899 -0.037313983 0.49184394
0.013684915 -0.037292432 0.49055117
0.03729308 -0.037464894 0.49114743
0.06291493 -0.037240241 0.49184391
0.086967856 -0.037628446 0.4908016
0.112545 -0.037705354 0.49227005
0.13796888 -0.037690964 0.49190405
0.16280422 -0.036783632 0.49168992
0.18829936 -0.037342794 0.48886645
0.21079446 -0.037596866 0.48398915
0.22633488 -0.037424434 0.47684351
-0.22825605 -0.012974441 0.48003837
-0.21107136 -0.013492322 0.48463809
-0.1883499 -0.012856765 0.48912552
-0.16181512 -0.012943252 0.49103379
-0.13819222 -0.012252558 0.4912332
-0.11221428 -0.012755196 0.4916839
-0.088124588 -0.01264956 0.49116763
-0.061820924 -0.013036971 0.49145696
-0.036827315 -0.012634274 0.49102619
-0.013428966 -0.013182096 0.49200493
0.013322888 -0.013416617 0.49106091
0.036719434 -0.0132147 0.49155882
0.063176684 -0.013112084 0.491932
0.086812593 -0.012845604 0.4913103
0.11245827 -0.012533969 0.49154791
0.1374007 -0.013270671 0.49105921
0.16317549 -0.012025121 0.49157065
0.18871996 -0.012225623 0.48855051
0.20946071 -0.01341194 0.4836565
0.22638839 -0.01683104 0.4754141
-0.22746636 0.012237204 0.4799808
-0.21035849 0.010200196 0.4844816
-0.18851659 0.01203541 0.48831251
-0.16078053 0.0121127 0.4915669
-0.13813809 0.012477927 0.49179792
-0.11227091 0.013226991 0.49182788
-0.087745346 0.012590067 0.4914729
-0.062315546 0.012618693 0.4916406
-0.037769906 0.012071798 0.49107999
-0.013225293 0.012945428 0.49190733
0.013457836 0.012472761 0.49108836
0.036809806 0.011963631 0.49140522
0.062956713 0.012100345 0.49144718
0.087129913 0.012580153 0.4909538
0.11299028 0.012802365 0.4919121
0.13781622 0.011913347 0.49179253
0.16311373 0.012243262 0.49187627
0.18876502 0.011892563 0.4878062
0.20921679 0.010664738 0.48270133
-0.22701608 0.030538386 0.47833341
-0.20851508 0.035240859 0.48266956
-0.18818329 0.037721425 0.48709154
-0.16205397 0.037511203 0.49064103
-0.13778192 0.037137598 0.49140584
-0.1116689 0.037620351 0.49161536
-0.087515339 0.037194427 0.49090219
-0.062035594 0.037229657 0.49144965
-0.037588973 0.036832415 0.49075237
-0.013468885 0.037065547 0.49175018
0.012343843 0.036477096 0.49025184
0.03567189 0.036996093 0.49112919
0.063097768 0.036709171 0.49124554
0.086691387 0.037493698 0.49066687
0.11169414 0.037355475 0.4911795
0.13708413 0.037363231 0.49086568
0.16259538 0.037098825 0.49096406
0.18770118 0.037119158 0.486532
0.20676923 0.035258185 0.48122725
-0.2078196 0.060609579 0.48180878
-0.18741049 0.062807269 0.48549867
-0.16199532 0.063021407 0.49012667
-0.13798419 0.062523395 0.49141657
-0.11192162 0.062732361 0.49183637
-0.087785639 0.06268537 0.49114764
-0.062067803 0.0633623 0.49170539
-0.037788518 0.063691869 0.49089772
-0.01373329 0.063464649 0.49164888
0.01201131 0.063741654 0.49048582
0.035825219 0.063411057 0.49144098
0.063656069 0.062980279 0.49170461
0.086638495 0.062662348 0.49119198
0.11271875 0.06254863 0.49185488
0.13707446 0.062664822 0.49115518
0.16187999 0.063067049 0.49075419
0.18685047 0.062579609 0.48461136
0.20411563 0.05902921 0.47898009
-0.20604558 0.083867058 0.48086557
-0.18577985 0.087373905 0.48488933
-0.16301955 0.088617772 0.48883674
-0.13881013 0.087306149 0.49128559
-0.1125337 0.086952642 0.49181238
-0.088347264 0.087548152 0.49078292
-0.062205698 0.088030659 0.49120894
-0.037516691 0.088100895 0.49063849
-0.013317442 0.087401345 0.49199551
0.012074816 0.088326782 0.4910109
0.035947479 0.088133186 0.49158654
0.062928587 0.087946512 0.49125507
0.086387463 0.087416515 0.49076387
0.11160928 0.086865887 0.49174592
0.13684584 0.087447293 0.49024472
0.16157129 0.087629527 0.48895577
0.18449759 0.087250955 0.48256734
0.20156252 0.080685005 0.47824606
-0.20051548 0.10693985 0.47655869
-0.18377249 0.109439 0.48312321
-0.16204785 0.11242146 0.4860968
-0.13782404 0.11287348 0.49029285
-0.11270139 0.11225098 0.49175584
-0.08760941 0.11253162 0.4911105
-0.062705263 0.11355732 0.49208575
-0.037808742 0.11232621 0.49087554
-0.013485225 0.11342499 0.49194059
0.012182742 0.1141219 0.49104986
0.035828151 0.11311833 0.49172321
0.062367752 0.11359534 0.4911969
0.086351164 0.11266403 0.49162412
0.11165117 0.11294245 0.49103668
0.13706467 0.11255597 0.48985639
0.16247176 0.11169285 0.48563123
0.17996952 0.11056318 0.47973785
-0.20454234 0.14287427 0.48713744
-0.1868601 0.13825151 0.48643139
-0.16140066 0.13749419 0.4864713
-0.13769792 0.13668841 0.48629069
-0.11303344 0.13758543 0.49065185
-0.087969273 0.13724612 0.49112293
-0.062617242 0.13721694 0.49101377
-0.03770946 0.13683319 0.49060574
-0.013446876 0.13763684 0.49144685
0.012320389 0.13702333 0.49021974
0.036123428 0.13725089 0.49108425
0.062721163 0.13793908 0.49056402
0.086513728 0.13710372 0.4903217
0.1127601 0.13615908 0.48993981
0.13724773 0.13809417 0.48755962
0.16333501 0.13595597 0.48617324
0.18347593 0.14362729 0.48521498
-0.18496586 0.15395135 0.48845199
-0.16478203 0.15665005 0.48565915
-0.13714544 0.1604763 0.48690742
-0.11249209 0.16132767 0.48940709
-0.087793507 0.16238441 0.48804352
-0.06247526 0.1622428 0.48943049
-0.03793525 0.16299792 0.49022722
-0.013616445 0.16312104 0.49056548
0.011937476 0.16278492 0.48978657
0.036083505 0.16171892 0.49004349
0.062756009 0.16200489 0.48754442
0.086772114 0.16241911 0.48835897
0.11294972 0.16113101 0.48592243
0.13657936 0.15876418 0.48311144
0.16635135 0.15509027 0.4869037
0.18110609 0.15425776 0.48758188
-0.15113024 0.17782526 0.48503625
-0.13491358 0.1800174 0.488691
-0.11353704 0.18242997 0.48665321
-0.08629439 0.18475339 0.48326352
-0.061830364 0.18653293 0.48459822
-0.037213616 0.18797103 0.48587447
-0.012570952 0.18778688 0.48556954
0.012915353 0.18699013 0.48570445
0.037068348 0.1869407 0.48567784
0.06170724 0.18631169 0.48341542
0.088624775 0.1844549 0.4846926
0.11231453 0.18211471 0.48737538
0.12890215 0.17950541 0.48758683
-0.058920305 0.20374723 0.4786084
-0.0371796 0.20504679 0.48081899
-0.012876685 0.20482661 0.48032999
0.011500571 0.2044646 0.48055744
0.036480989 0.20467249 0.4804166
0.055411793 0.20335664 0.47744378
-0.1574553 -0.20524848 0.50090277
-0.13484421 -0.2034435 0.50218868
-0.11290245 -0.2044228 0.50111473
-0.086594239 -0.20332092 0.50126052
-0.063845731 -0.20466994 0.50150609
-0.037478458 -0.20621622 0.50101238
-0.015969284 -0.20503359 0.50106597
0.0078520738 -0.20584962 0.501423
0.037253931 -0.20410967 0.50132591
0.068277247 -0.20881653 0.50096917
0.089867927 -0.20373449 0.50099146
0.11305553 -0.20492737 0.50063133
0.14854774 -0.20373845 0.50151581
-0.2017532 -0.18362814 0.5015465
-0.18423474 -0.18434665 0.50233281
-0.16232561 -0.18386444 0.50259244
-0.13776243 -0.18474886 0.50298256
-0.11357421 -0.18659128 0.50249326
-0.088554204 -0.18498886 0.50296968
-0.062600963 -0.18454452 0.50319958
-0.038292408 -0.1868147 0.50303495
-0.015464159 -0.18460742 0.50263333
0.010790927 -0.18639578 0.50268924
0.036449861 -0.18564528 0.5026167
0.063338339 -0.18473904 0.5028522
0.087091409 -0.18480653 0.50254297
0.11237254 -0.18409066 0.5024693
0.13767789 -0.18462251 0.5021714
0.1614449 -0.18200371 0.50194049
0.18332262 -0.1881253 0.50240612
-0.20422988 -0.16403884 0.50178564
-0.18579333 -0.16267462 0.50277996
-0.16277272 -0.16204484 0.50363326
-0.13782206 -0.16203412 0.50348818
-0.11222484 -0.16286232 0.50372255
-0.087567531 -0.16291767 0.50345629
-0.061410006 -0.16248828 0.50337452
-0.038379896 -0.16333491 0.50378734
-0.014159192 -0.16219436 0.50359082
0.010409649 -0.1629169 0.50368792
0.036085319 -0.16289569 0.50323671
0.061891824 -0.1623712 0.50332242
0.086802088 -0.16160436 0.50324184
0.11279149 -0.16280439 0.50306654
0.13798332 -0.16173767 0.50302637
0.16170587 -0.16135794 0.50231838
0.18032229 -0.16022579 0.50231755
0.20216216 -0.15642005 0.50117695
-0.2055345 -0.13864216 0.50213486
-0.18515639 -0.13839155 0.50342035
-0.16329749 -0.13778353 0.50351781
-0.1369635 -0.13824348 0.50356412
-0.11278282 -0.13793221 0.50389427
-0.088273279 -0.13808453 0.50350451
-0.063208938 -0.13715415 0.5035947
-0.038137678 -0.13788842 0.50322992
-0.013706062 -0.13781284 0.5034641
0.0097376164 -0.13794929 0.50321484
0.035288457 -0.13815269 0.50286639
0.061579745 -0.13737905 0.50311923
0.086697847 -0.13760951 0.50325388
0.11249121 -0.13820626 0.50307256
0.13784282 -0.13849273 0.50313938
0.16235566 -0.13805293 0.50273204
0.18401301 -0.13645044 0.50197494
-0.20287722 -0.11445679 0.50218308
-0.18600693 -0.11326435 0.50326222
-0.16287416 -0.11262767 0.50356823
-0.13725354 -0.11274718 0.50374162
-0.11250602 -0.11231127 0.50376844
-0.087305866 -0.112889 0.50313228
-0.062790506 -0.11178145 0.50333542
-0.038561955 -0.11183032 0.50351769
-0.014365652 -0.11300278 0.50348783
0.010630783 -0.11245926 0.50342548
0.036296718 -0.1117223 0.5029543
0.063437946 -0.11255997 0.50341642
0.087383293 -0.11214664 0.50311685
0.11294314 -0.11276184 0.50335497
0.13796103 -0.11405237 0.50286317
0.16192165 -0.11422832 0.50291342
0.18290687 -0.11289762 0.50229448
-0.2077326 -0.096424825 0.50092942
-0.18553014 -0.088081859 0.50294453
-0.1643362 -0.087265752 0.5036056
-0.13740292 -0.087700129 0.50414646
-0.11222485 -0.087996751 0.50399756
-0.088490076 -0.088033549 0.50327486
-0.062401872 -0.087798931 0.50360793
-0.039162084 -0.087165125 0.50345743
-0.013991388 -0.088864267 0.50357586
0.010763177 -0.088357367 0.5032776
0.036274541 -0.087314032 0.50324953
0.062590361 -0.087774545 0.50312859
0.08807534 -0.08755514 0.50311041
0.11429808 -0.086909093 0.50288969
0.13820532 -0.08622916 0.50286388
0.16157833 -0.088078991 0.50273609
0.18263964 -0.087114558 0.5021503
-0.20599094 -0.061609566 0.50235498
-0.18522088 -0.062091421 0.50295883
-0.1636146 -0.062685825 0.50346857
-0.13687707 -0.063329525 0.50330591
-0.11193062 -0.063218929 0.50401121
-0.088161685 -0.063326009 0.50348759
-0.062886894 -0.062687516 0.50358069
-0.037718777 -0.061931383 0.5032286
-0.013911469 -0.062170874 0.50340348
0.01098613 -0.062062088 0.50328243
0.036115352 -0.061625697 0.5028441
0.063107617 -0.062365595 0.50322044
0.087999977 -0.063556492 0.50286287
0.11384371 -0.062441625 0.50324655
0.137675 -0.062206555 0.50323892
0.16338201 -0.062586918 0.5028131
0.18357702 -0.063156128 0.50164437
-0.20242673 -0.03984493 0.50132883
-0.18614683 -0.0367794 0.50223577
-0.16349111 -0.037531398 0.50374144
-0.13725485 -0.037165232 0.5035876
-0.11187175 -0.0372237 0.50384718
-0.087572701 -0.037288949 0.50332898
-0.061688952 -0.03837638 0.50369191
-0.038221486 -0.037613984 0.5035519
-0.014510651 -0.037066121 0.50344259
0.011724479 -0.037178192 0.50332963
0.037184324 -0.037337732 0.50286597
0.062236734 -0.037774172 0.50328618
0.087701507 -0.037688252 0.50294656
0.11456475 -0.037965938 0.50272542
0.13846131 -0.03757811 0.50275964
0.16176517 -0.038050752 0.50258243
0.18341167 -0.038105249 0.50127053
-0.18489622 -0.012066104 0.50240439
-0.16289277 -0.012415091 0.50331038
-0.1377648 -0.013105619 0.50370234
-0.11151916 -0.01176296 0.50391001
-0.087576933 -0.012310917 0.50325662
-0.061839573 -0.012815844 0.50368422
-0.037052505 -0.012395021 0.50312811
-0.014735283 -0.012468504 0.5033043
0.010271749 -0.011874774 0.50342798
0.036191747 -0.011639304 0.50296932
0.063104481 -0.011769124 0.50311863
0.088631466 -0.012075751 0.50274354
0.11420626 -0.01152382 0.50288951
0.13750443 -0.010534933 0.50283796
0.16114655 -0.012750516 0.50260597
0.18082108 -0.012777552 0.50190669
-0.18385515 0.01077667 0.50307161
-0.16157608 0.013636488 0.50374097
-0.13692358 0.012957905 0.50372505
-0.11267024 0.013499838 0.5037325
-0.088929482 0.01296351 0.50332797
-0.062779129 0.013224513 0.50358766
-0.036953647 0.012970554 0.50340497
-0.01403218 0.013191093 0.50364524
0.011785435 0.013470082 0.50341427
0.036541652 0.01343349 0.50309932
0.063685946 0.013468868 0.50304174
0.087644391 0.012910481 0.50321841
0.11436361 0.014256353 0.50285965
0.13873108 0.013444738 0.50302428
0.1591842 0.011856091 0.50233382
0.1785883 0.014458281 0.50126016
-0.18450752 0.035871424 0.50147665
-0.16254535 0.03647374 0.50303608
-0.13690513 0.036863625 0.50377166
-0.11320543 0.035677914 0.50376326
-0.087729998 0.036855116 0.50348437
-0.062436022 0.037281189 0.50358027
-0.037773065 0.037147589 0.50326622
-0.014858063 0.036473535 0.50327879
0.011356601 0.036716428 0.50341362
0.036908031 0.037500106 0.50288355
0.062826946 0.037381738 0.50311255
0.087301604 0.037627127 0.50283897
0.11391683 0.036938675 0.50282538
0.13805097 0.03647266 0.50291342
0.16050164 0.03470128 0.50208104
0.1750561 0.049425364 0.50081521
-0.1764394 0.065209448 0.50241065
-0.16249749 0.060795877 0.50308633
-0.13730538 0.06190053 0.50344157
-0.11280806 0.060941063 0.50399107
-0.08830896 0.062463902 0.50373107
-0.062458318 0.06211172 0.50347286
-0.038163941 0.062262874 0.50323111
-0.014859655 0.063153297 0.50332606
0.010351813 0.063212536 0.50315243
0.036102343 0.062478274 0.5031355
0.062709562 0.062306929 0.50277197
0.087614425 0.062458102 0.50313711
0.1128349 0.063281231 0.50242424
0.13795482 0.063612521 0.50271237
0.15813439 0.061335638 0.50189912
-0.17613429 0.082852721 0.50088495
-0.15993164 0.083588794 0.50213289
-0.13581485 0.085897617 0.50359303
-0.11358935 0.086735442 0.50348687
-0.089151189 0.086292282 0.50323254
-0.062854849 0.087639377 0.50339037
-0.03827548 0.087115027 0.50322765
-0.014805505 0.087296195 0.5034582
0.011566651 0.087456904 0.50337338
0.03688594 0.087272502 0.50302261
0.062529013 0.08773566 0.5028289
0.086455598 0.086808734 0.50322151
0.11267579 0.087651387 0.50292301
0.13676322 0.088482283 0.5022617
0.15310085 0.079661585 0.50204468
-0.18454224 0.12384062 0.51535368
-0.15574268 0.10933455 0.50189042
-0.13640444 0.11037713 0.50257158
-0.11267602 0.11271502 0.50344646
-0.08852528 0.11312028 0.50315982
-0.063426301 0.11260956 0.50356424
-0.038011704 0.11177191 0.50321889
-0.015025499 0.11388111 0.5032481
0.011976442 0.1123719 0.50338072
0.035749409 0.11129194 0.50266731
0.062967718 0.11205582 0.50281358
0.087411955 0.11084208 0.50311327
0.11246637 0.11150663 0.50254774
0.13533677 0.111439 0.50147402
-0.20558482 0.14158401 0.51326054
-0.18824872 0.13897784 0.51215613
-0.16601469 0.13758725 0.51225883
-0.13731994 0.13083816 0.50530511
-0.11144016 0.13594888 0.50254512
-0.088075176 0.13736448 0.50320506
-0.06306202 0.13745002 0.50303042
-0.038530018 0.13755362 0.50319248
-0.015176338 0.138028 0.50322217
0.011623053 0.13671748 0.50347668
0.038298659 0.13694343 0.50347507
0.06204813 0.13503572 0.503106
0.085120678 0.1359342 0.50361121
0.11260495 0.13411598 0.50206226
0.14134583 0.1395507 0.51193637
0.16275124 0.13808435 0.51224822
0.18288979 0.14290641 0.51292729
-0.20199224 0.15060472 0.51273692
-0.18753155 0.15394773 0.51363951
-0.1684269 0.15411718 0.51278841
-0.13452591 0.16421948 0.51369172
-0.11387977 0.16509062 0.51286757
-0.092135288 0.16318174 0.50547278
-0.060030133 0.15825517 0.50226498
-0.037944544 0.1591869 0.50333261
-0.016939532 0.16164808 0.50263852
0.0097322408 0.15941629 0.50303024
0.035732877 0.15934582 0.50246394
0.063058108 0.15885697 0.50371128
0.088853568 0.16476204 0.51236725
0.11093878 0.16600801 0.51295263
0.14104223 0.15646225 0.51207638
0.1661745 0.15550283 0.51329356
0.18219018 0.15349518 0.51304394
-0.15284014 0.17702457 0.51929247
-0.13496642 0.18030757 0.51327372
-0.11706123 0.18219408 0.5129022
-0.097872555 0.17624575 0.50787938
-0.046646133 0.180374 0.50060523
-0.021401852 0.1813322 0.50124824
0.0098790973 0.18018894 0.50075537
0.041492999 0.17889792 0.50181973
0.093977869 0.18365276 0.51437068
0.1125734 0.18214048 0.5125227
0.13034652 0.1807342 0.51376182
-0.1865392 0.12151587 0.54057437
-0.20558238 0.1411384 0.53880227
-0.1873294 0.13824542 0.53742236
-0.16540977 0.13867283 0.53716928
-0.14955717 0.1392155 0.54682398
0.14357904 0.13821994 0.53676903
0.16295525 0.13756834 0.53823364
0.18453057 0.14202429 0.53865319
0.20150584 0.14522095 0.5375917
-0.20072046 0.15331802 0.53288418
-0.18733245 0.15333985 0.53818589
-0.16571799 0.15846494 0.5399847
-0.13575386 0.16495956 0.53831762
-0.11409695 0.16572681 0.53758472
-0.096978113 0.16569211 0.5397414
0.089381859 0.16490312 0.53712922
0.11024354 0.16567153 0.53712356
0.12935154 0.16546299 0.53640014
0.16549838 0.15474074 0.53723723
0.18112329 0.15439823 0.53830242
-0.15139125 0.17888093 0.53859866
-0.13441224 0.18150325 0.53841883
-0.11683307 0.18144867 0.53809571
0.094156779 0.18269792 0.53695554
0.11232219 0.18310739 0.53804249
0.1294599 0.18016832 0.53708875
-0.18695472 0.1220028 0.56045508
0.15792754 0.12424648 0.57347226
-0.20824486 0.14083312 0.56228775
-0.18782556 0.13707405 0.56249005
-0.16639502 0.13880216 0.56194073
0.14373285 0.13826047 0.56224698
0.16258638 0.13664961 0.56270099
0.1857349 0.14167993 0.56236148
0.20365083 0.14263131 0.57150334
-0.20308825 0.15097335 0.56289065
-0.19061729 0.15305713 0.5613358
-0.15719283 0.16700032 0.56676328
-0.13549082 0.1632906 0.56348342
-0.11598885 0.16503182 0.56184679
-0.097308844 0.16485742 0.56026733
0.090467677 0.16548727 0.56233114
0.11098768 0.16588235 0.56176925
0.13067088 0.16813348 0.56352526
0.16568424 0.15379205 0.56239635
0.1832321 0.15368043 0.56242615
-0.15443446 0.17823629 0.56392175
-0.13463703 0.18157119 0.56277245
-0.11743025 0.18233745 0.56266493
0.094561122 0.18189523 0.56144148
0.11315209 0.18334185 0.56187403
0.13229252 0.18132302 0.56363422
-0.18592851 0.12306488 0.58621836
-0.16882724 0.12370384 0.59475523
0.15857856 0.12404895 0.5909918
-0.20831338 0.13988091 0.58663285
-0.18846583 0.13701282 0.58708042
-0.16642979 0.13827468 0.587201
