# .PCD v0.7 - Point Cloud Data file format
VERSION 0.7
FIELDS x y z
SIZE 4 4 4
TYPE F F F
COUNT 1 1 1
WIDTH 1464
HEIGHT 1
VIEWPOINT 0 0 0 1 0 0 0
POINTS 1464
DATA ascii
0.5841403 0.20701762 0.3652004
0.59664446 0.21034537 0.35825205
0.14831355 0.46923357 0.42689252
0.15645126 0.46653318 0.41917491
0.44832319 0.41576314 0.16548514
0.45422035 0.41299886 0.15398324
0.11873525 0.4874301 0.42687666
0.13345179 0.47996598 0.42264378
0.15008643 0.47538286 0.40738022
0.43723881 0.42465079 0.15179729
0.44923896 0.421139 0.14396262
0.46245092 0.42352474 0.12638354
0.11432654 0.4911108 0.42285466
0.12708479 0.48902506 0.41212714
0.14177358 0.48577958 0.39867842
0.43053257 0.43481171 0.14221704
0.44166547 0.43251634 0.13186753
0.457771 0.42966127 0.11821496
0.29924011 0.26360506 0.67634898
0.3097198 0.26061237 0.66727638
0.3264724 0.25781602 0.65175378
0.6131658 0.2066056 0.39471495
0.6265536 0.20347576 0.38650596
0.64225346 0.20096128 0.37111259
0.29373288 0.26748645 0.66675562
0.30520004 0.27214682 0.65213883
0.31745201 0.27299297 0.63601828
0.6054728 0.21859108 0.38426268
0.61534351 0.21948521 0.37163091
0.63246459 0.21043758 0.36530209
0.31199342 0.27977097 0.6293422
0.60028827 0.22805889 0.37390375
0.60839468 0.22707967 0.36721766
0.16066825 0.48707789 0.43779433
0.16967484 0.48385262 0.43042588
0.46049827 0.43204355 0.17673612
0.46862763 0.43095839 0.16468894
0.13174427 0.50690252 0.43893278
0.1449292 0.50062227 0.43233764
0.1621061 0.49686199 0.41721749
0.45053148 0.4444086 0.16277695
0.4616397 0.4418211 0.15338063
0.47645682 0.44214267 0.13690805
0.1272746 0.50847852 0.43403685
0.13896558 0.5050922 0.42275918
0.15312296 0.5024088 0.41035748
0.44372016 0.45093179 0.15282142
0.4549188 0.44847858 0.14222896
0.47000003 0.44628721 0.12963283
0.31141967 0.2831704 0.68642199
0.32233596 0.27979791 0.67693788
0.33871901 0.27736276 0.66206867
0.62634718 0.22785558 0.40566385
0.6387735 0.22271593 0.39612436
0.65459925 0.22060309 0.38078868
0.30839109 0.28778636 0.67979228
0.31701171 0.29095733 0.66267228
0.32970369 0.29163414 0.64680123
0.61783767 0.23805933 0.39446712
0.6283989 0.23784529 0.3818723
0.64553225 0.23000775 0.37515223
0.31883901 0.30352068 0.64847261
0.3257575 0.30063438 0.64021844
0.61089528 0.24691625 0.3851831
0.62073874 0.24675338 0.37747407
0.17264646 0.50568432 0.45023751
0.18372685 0.50141287 0.44242918
0.47263879 0.44833481 0.18708479
0.48243362 0.44854105 0.17597568
0.49258012 0.45242423 0.16511118
0.14499626 0.52443749 0.44974661
0.15713584 0.51894546 0.44184387
0.17403743 0.51580942 0.42717957
0.46311665 0.46348512 0.17249012
0.47244483 0.46225524 0.16158056
0.48860168 0.4601804 0.14748144
0.14979082 0.52064896 0.43197358
0.16689104 0.51706201 0.41667318
0.46391368 0.46338302 0.15325105
0.47881371 0.4610849 0.14053154
0.32428664 0.30191332 0.696513
0.33494973 0.29905182 0.68707287
0.35047013 0.29591888 0.67207676
0.63951045 0.24723797 0.41569877
0.6511367 0.24192868 0.40621841
0.66679412 0.23976265 0.39142787
0.32289881 0.3097626 0.69135064
0.32924455 0.31012082 0.67393076
0.34278059 0.31039435 0.65722799
0.63044274 0.25717294 0.40404117
0.640733 0.25632739 0.39202678
0.65811795 0.24929927 0.38564706
0.33419168 0.32673001 0.66208667
0.33770126 0.31964076 0.65054965
0.62071282 0.26300406 0.39291537
0.63233119 0.26531494 0.38775921
0.18377393 0.52385122 0.4619137
0.19707501 0.51857132 0.45361578
0.48578972 0.46489286 0.19826543
0.49601084 0.46635216 0.18747163
0.50475913 0.46865791 0.17397702
0.15808544 0.54106891 0.46220064
0.16968372 0.53695184 0.45357585
0.18709701 0.53394991 0.43904459
0.47533464 0.48244619 0.18240047
0.48559213 0.48028004 0.17242074
0.50202405 0.47756743 0.15875208
0.33554292 0.32004637 0.70594376
0.34686202 0.31864113 0.69744849
0.36382633 0.31657076 0.68242884
0.38908094 0.32141429 0.66715097
0.40809232 0.31810302 0.64975691
0.42663944 0.31525451 0.63224316
0.4442814 0.31218386 0.61658472
0.46276551 0.30867785 0.60019326
0.48026896 0.30592763 0.58355957
0.49858505 0.30237567 0.56811297
0.51769567 0.2987361 0.55105817
0.53690147 0.29614949 0.53359604
0.55393565 0.2925275 0.51879907
0.57451403 0.28839391 0.50101483
0.59363335 0.28534657 0.48380399
0.6108045 0.28245604 0.4684155
0.62897784 0.27881068 0.45230043
0.64952689 0.26974261 0.43018425
0.66359979 0.26142091 0.41630626
0.67946762 0.25923985 0.40139186
0.33539706 0.32991236 0.70080656
0.34139776 0.32979017 0.68379331
0.35613048 0.32941163 0.66645885
0.38250774 0.33179665 0.65532243
0.40064394 0.32923901 0.63863128
0.42010158 0.32546681 0.62135911
0.4362554 0.32311624 0.60578471
0.45559812 0.31851977 0.59076512
0.47387958 0.31598026 0.57313168
0.49311125 0.31213945 0.55639577
0.51151723 0.30893368 0.54024661
0.52995318 0.30548024 0.52370441
0.54708326 0.30230922 0.50889957
0.566046 0.29932529 0.49120188
0.58548778 0.29543823 0.47410309
0.60381126 0.29256594 0.45734751
0.62171179 0.2888748 0.44197428
0.64141756 0.28134441 0.4222014
0.65339881 0.27577102 0.40229034
0.6708498 0.26809722 0.39533651
0.34272414 0.34101689 0.66783828
0.34951597 0.33840281 0.66061562
0.36794108 0.34866697 0.64266962
0.39221781 0.3382445 0.63202566
0.41283244 0.33536333 0.61459392
0.43409741 0.33077151 0.59385437
0.44412059 0.32884383 0.58616543
0.46857303 0.32519728 0.56337416
0.48757565 0.3217811 0.54752779
0.50426829 0.31810176 0.53184283
0.52721977 0.31413543 0.51126969
0.54111385 0.31207716 0.49904191
0.56032723 0.307634 0.48265624
0.58044195 0.30481684 0.46383953
0.59833711 0.30131072 0.44772065
0.61596197 0.29918283 0.43241501
0.62991935 0.29859298 0.41175377
0.64610243 0.28484327 0.39703846
0.35600257 0.36559588 0.62679219
0.61630338 0.31791854 0.3962971
0.34450644 0.38182318 0.61151147
0.60505736 0.33369833 0.38063955
0.33393103 0.39746946 0.59546947
0.59333891 0.35078692 0.3634876
0.3161096 0.4172259 0.58445519
0.32192928 0.41453075 0.57932043
0.58163613 0.36663604 0.34845364
0.30863971 0.4268378 0.57399803
0.31237513 0.42846477 0.56506228
0.5713715 0.38056511 0.33439815
0.29837352 0.4404484 0.55904472
0.30067581 0.44490957 0.54909062
0.55981916 0.39563298 0.31818807
0.28252 0.46473414 0.53648531
0.28908843 0.46176857 0.53308833
0.54898018 0.41131938 0.30385828
0.27704221 0.47776866 0.5187465
0.53911799 0.43208206 0.2831763
0.26729172 0.49245673 0.5027163
0.52909297 0.44552892 0.27013433
0.24627054 0.51751536 0.48580754
0.25611329 0.50843817 0.48636854
0.51718438 0.46151686 0.25467539
0.23658693 0.52912825 0.47285664
0.24541765 0.52417386 0.47067094
0.50580847 0.47633255 0.23994374
0.19677287 0.5414809 0.47366369
0.21179247 0.5363546 0.46481645
0.2372725 0.54008788 0.45047343
0.25416958 0.53872687 0.43305159
0.27339 0.53521764 0.41593695
0.29187298 0.53181493 0.39976263
0.31005853 0.52884078 0.38280749
0.32833833 0.52531797 0.36697257
0.34821409 0.52156216 0.34949386
0.36587346 0.51834846 0.33346415
0.38453299 0.51518357 0.31761384
0.40223438 0.51171845 0.30206943
0.42090422 0.50909734 0.28420186
0.43899 0.50576329 0.26837063
0.45861858 0.50183785 0.25064695
0.4770636 0.49868798 0.23494494
0.49524796 0.49356955 0.22060394
0.50984174 0.48386431 0.19839394
0.51925641 0.48688763 0.18449557
0.17277032 0.55766064 0.47452474
0.1833002 0.55478358 0.46533227
0.20022148 0.55146283 0.45027709
0.22929841 0.55119288 0.44067442
0.24873209 0.5484848 0.42357481
0.26956332 0.54378211 0.40471482
0.28742856 0.54101992 0.38959575
0.30504084 0.53780639 0.37303376
0.32293785 0.53440285 0.35777175
0.34126323 0.5309152 0.3410598
0.35912323 0.52817667 0.32485664
0.3782056 0.524427 0.30773091
0.39732784 0.52069545 0.29178607
0.41542047 0.51837146 0.27472842
0.4339453 0.51477057 0.25954902
0.45246559 0.51139325 0.24279094
0.47069728 0.50786084 0.22547019
0.48716789 0.50248641 0.19956827
0.49863881 0.49840403 0.18348312
0.51578867 0.49504882 0.17082107
0.34860235 0.34037769 0.71629715
0.35978001 0.33759826 0.70662159
0.3784216 0.33444601 0.69013715
0.39717066 0.33201498 0.67334551
0.41591018 0.32835859 0.65630883
0.43434834 0.3251844 0.640064
0.45274413 0.3218534 0.6235168
0.47141951 0.31854814 0.60728246
0.4894731 0.31497037 0.59085375
0.50801808 0.31214291 0.57452297
0.52675468 0.30831456 0.55764222
0.54496765 0.30550665 0.54160547
0.56383556 0.30196679 0.52511525
0.58233702 0.29901028 0.50886583
0.6008113 0.29552948 0.49201787
0.61980718 0.29225248 0.47534406
0.63812578 0.28913778 0.45945084
0.65612668 0.28534454 0.44305313
0.67540854 0.28100175 0.4265759
0.69087166 0.27827853 0.41156769
0.34785831 0.34979236 0.71149242
0.35352361 0.34913558 0.69415247
0.3659507 0.34566098 0.67411679
0.38472331 0.33895963 0.65756589
0.40355545 0.33555365 0.64176565
0.42209643 0.33124459 0.62520421
0.4410128 0.32793802 0.60853857
0.45966876 0.32453698 0.59210843
0.47787386 0.32114035 0.57625651
0.49630368 0.31815362 0.55911779
0.51493186 0.31484145 0.54329383
0.53347915 0.31143761 0.52703762
0.55250973 0.30762476 0.51049566
0.57075381 0.30449116 0.49456561
0.58868462 0.30130714 0.47776353
0.60750347 0.29814917 0.46133256
0.6254133 0.29481059 0.44512475
0.64333451 0.29117405 0.42867374
0.66602057 0.2937687 0.4099431
0.68330318 0.28660697 0.40514708
0.35238624 0.35636222 0.67787147
0.36450869 0.36005074 0.6632551
0.37465537 0.35780394 0.64701676
0.40104103 0.35043019 0.63578981
0.41976362 0.34702229 0.618963
0.43781936 0.34310812 0.60262412
0.45668614 0.33999014 0.58603787
0.47570294 0.33653718 0.56901038
0.49428695 0.3343395 0.5534718
0.51229221 0.33048719 0.53695142
0.53043419 0.3270101 0.52073586
0.54898047 0.32336301 0.50386822
0.56877059 0.32098502 0.48767591
0.58592874 0.31659913 0.47080982
0.60516435 0.31419617 0.45466077
0.6232149 0.31021225 0.43811226
0.63886034 0.31247723 0.41624677
0.65707487 0.30363202 0.40740299
0.35561651 0.38065022 0.64253271
0.36292857 0.37497807 0.63163877
0.62713313 0.33004743 0.39974356
0.64028984 0.33441162 0.39390635
0.34469277 0.39629263 0.62779838
0.35147721 0.3906883 0.61610293
0.61624759 0.34578454 0.38452804
0.6297645 0.35313368 0.3769387
0.3332808 0.41184664 0.61100882
0.34096426 0.40655553 0.60018384
0.60550886 0.36149085 0.36917865
0.62129426 0.36529267 0.36408603
0.32222229 0.42797327 0.59509778
0.3295722 0.42247844 0.58462656
0.59444815 0.37814897 0.35304439
0.60400856 0.38457584 0.34430265
0.31133479 0.44404304 0.57959801
0.31866038 0.43857384 0.56902266
0.58317399 0.39367545 0.33717966
0.59626496 0.39794791 0.33155382
0.29997468 0.45949173 0.56358099
0.30682844 0.45417541 0.55364585
0.57212776 0.4092536 0.32170463
0.58967066 0.41081268 0.32072663
0.28901762 0.47610474 0.54821682
0.29610127 0.47072566 0.53728831
0.56041163 0.42566293 0.30577409
0.58032131 0.42336202 0.30780137
0.27820158 0.49238473 0.53271687
0.28590053 0.48709756 0.52161098
0.54946542 0.4415977 0.29011416
0.56156152 0.44798625 0.28318644
0.26721156 0.50785929 0.51721346
0.27431494 0.50233209 0.50619149
0.53919971 0.45774901 0.27470052
0.55190915 0.46396583 0.26788652
0.25625092 0.52362353 0.50152338
0.26310861 0.5180431 0.49045432
0.52779907 0.4741776 0.25872397
0.54170108 0.4796586 0.25256097
0.2450949 0.53977084 0.48608816
0.25219148 0.5341357 0.47431374
0.51669961 0.48962474 0.2430197
0.52994633 0.49524677 0.23614192
0.1929155 0.56978738 0.49275064
0.20896775 0.56034559 0.48628092
0.22688371 0.55048734 0.47511435
0.24328029 0.54734975 0.45552695
0.26233029 0.54521191 0.4392432
0.28068358 0.54184699 0.42343771
0.29895627 0.5384773 0.40670621
0.31742293 0.53474873 0.38998222
0.33635104 0.53133094 0.37328589
0.35459846 0.52827501 0.35693216
0.37341297 0.52553189 0.34098566
0.39127439 0.52173567 0.32400668
0.41054553 0.51852798 0.30798995
0.4292928 0.51569802 0.29177415
0.44747603 0.51185137 0.27522588
0.46575487 0.50902522 0.25913393
0.48436695 0.50566876 0.2428149
0.50350231 0.50078619 0.22685897
0.52367222 0.49984246 0.20999599
0.53240508 0.50503564 0.19470775
0.18675029 0.57451797 0.48679924
0.19664508 0.57252532 0.47644138
0.21660632 0.56912434 0.46009767
0.23673803 0.56468135 0.44482279
0.25556254 0.56162351 0.42825067
0.27349001 0.55787808 0.41162062
0.29178041 0.55470568 0.39583325
0.3104865 0.55126333 0.37890077
0.32946652 0.54788905 0.36247563
0.34756559 0.54451889 0.34585381
0.36626261 0.54148674 0.3296802
0.38468218 0.53797477 0.31313705
0.40351802 0.5346728 0.29657972
0.42187315 0.53158057 0.28029907
0.44020933 0.52761912 0.26388276
0.45878565 0.52471626 0.24736691
0.47751075 0.52191043 0.23089087
0.49545836 0.51863694 0.21463656
0.51182562 0.51632345 0.19504106
0.52919871 0.51210392 0.18170536
0.36067981 0.35886943 0.72562814
0.37226599 0.35659415 0.71611315
0.39199352 0.35301644 0.70113719
0.41120166 0.34875631 0.68654126
0.42977625 0.34543836 0.66991389
0.44868946 0.34192562 0.65303147
0.46752232 0.33907539 0.63728732
0.48559785 0.33564013 0.62058282
0.5040971 0.33231479 0.60433823
0.52301216 0.32922727 0.58738208
0.54097444 0.32560825 0.57078397
0.55999112 0.32249457 0.55424619
0.57872444 0.31912827 0.53775704
0.59698337 0.31626272 0.52190268
0.61557281 0.31266016 0.50454998
0.63408923 0.30951208 0.48853731
0.65193707 0.30606127 0.47203946
0.6706419 0.30277473 0.45469153
0.6875425 0.30000478 0.43661368
0.70343739 0.29757965 0.42154205
0.35858732 0.36532557 0.72185159
0.36564654 0.36844081 0.70489621
0.37365478 0.3717922 0.68818974
0.68101817 0.31430513 0.41797638
0.69660813 0.30624521 0.41547704
0.36587566 0.37887508 0.68922186
0.37170655 0.38027304 0.67221922
0.39212769 0.3768416 0.65397978
0.41272789 0.37619013 0.64343208
0.42998457 0.37122369 0.62667674
0.44897693 0.3681097 0.60995382
0.46707642 0.36460984 0.59335124
0.48537302 0.36109245 0.57695436
0.5045175 0.35800236 0.5604701
0.52311605 0.35468632 0.5441252
0.54134971 0.3515656 0.52729499
0.56037539 0.3474887 0.51072204
0.57874697 0.345079 0.49411404
0.59714067 0.34174585 0.47809291
0.61505884 0.33850467 0.46157885
0.63359284 0.33525223 0.44495738
0.65053052 0.32956535 0.42324305
0.66590041 0.32853085 0.41524339
0.36123365 0.39724684 0.65545821
0.38116163 0.39440352 0.63876027
0.40146452 0.39598918 0.62626076
0.41947788 0.39235479 0.60933608
0.4375661 0.38885039 0.59333426
0.45600408 0.38524181 0.5772388
0.4748503 0.38233888 0.56066895
0.49317616 0.37836128 0.54397607
0.51216257 0.37512064 0.52776957
0.53036797 0.37185407 0.51134765
0.54923278 0.36892825 0.49414229
0.56771547 0.36545062 0.47792017
0.58600336 0.36240703 0.46164405
0.60445976 0.3590529 0.44525313
0.62274879 0.35537839 0.42897189
0.64000219 0.34631622 0.40788758
0.6528365 0.34857607 0.40003371
0.3507244 0.41313863 0.63996994
0.36968297 0.41022062 0.62284857
0.39012522 0.41194212 0.61059755
0.408189 0.4081164 0.59375
0.42683816 0.40465653 0.57698828
0.44514894 0.4011277 0.56014109
0.46317571 0.39817041 0.54442859
0.48205954 0.39433342 0.52786243
0.5005641 0.39173722 0.51147723
0.51931357 0.38785917 0.49517882
0.53827071 0.38443089 0.47774255
0.55642265 0.38156515 0.46185958
0.57417458 0.37820488 0.44593227
0.59323484 0.37443036 0.42995679
0.61086863 0.3712889 0.41288269
0.62862372 0.36222255 0.39257085
0.64132851 0.36351943 0.38424575
0.3396185 0.42873454 0.62453961
0.35957915 0.42628896 0.60732204
0.37968338 0.42788452 0.59516919
0.39750856 0.42404318 0.57852322
0.41629177 0.41976702 0.56220841
0.43456715 0.4161011 0.54548359
0.45223296 0.41356027 0.52920425
0.47066641 0.4103387 0.51248419
0.48948413 0.40753698 0.4961257
0.50866455 0.40386033 0.47992408
0.52729756 0.40017003 0.4629066
0.54560119 0.39714634 0.44763422
0.5640083 0.39360034 0.43093801
0.58206201 0.39048856 0.4142698
0.59982097 0.38679236 0.39812636
0.61711091 0.37811232 0.37700236
0.63046438 0.37993091 0.36883414
0.32814699 0.44491947 0.60847676
0.3484391 0.44232821 0.59162986
0.36834669 0.44396251 0.57946205
0.38612157 0.44014955 0.56296551
0.4052369 0.43603778 0.54620802
0.42370605 0.43262959 0.52978766
0.44177407 0.4297986 0.513533
0.45995939 0.42632735 0.4962914
0.47896725 0.42301702 0.48083413
0.49720567 0.4198395 0.46425867
0.5159834 0.4167155 0.44725645
0.53464401 0.41306138 0.43167341
0.55320591 0.40981591 0.41509795
0.57130873 0.40673608 0.39848161
0.58913743 0.40320688 0.38207197
0.60603994 0.39369208 0.3609159
0.61933708 0.39569741 0.35278571
0.31688613 0.46098042 0.592749
0.33649302 0.45794249 0.57527971
0.35730249 0.45953584 0.56348586
0.37474847 0.45599949 0.54729223
0.39367956 0.45234835 0.53015029
0.41231984 0.44858384 0.51346004
0.43082887 0.44565034 0.4975301
0.44923311 0.44211167 0.48085892
0.46797258 0.43881214 0.46514165
0.48650151 0.43587148 0.44805598
0.50511265 0.43285012 0.43153012
0.52319479 0.42911315 0.41582477
0.54188764 0.42635167 0.39945221
0.56053191 0.42292589 0.38301289
0.57831699 0.4190383 0.36666143
0.59469259 0.40986574 0.34573865
0.60807317 0.4119336 0.33706141
0.30639964 0.47663599 0.5771547
0.32591611 0.47299778 0.55953526
0.34659684 0.47562206 0.54757679
0.3636114 0.47146082 0.53193593
0.38218939 0.46848303 0.51503491
0.40201014 0.46506703 0.497527
0.42000437 0.46190679 0.48184657
0.43820328 0.45810223 0.4648782
0.45701963 0.45529413 0.44887781
0.47526699 0.45196968 0.43271697
0.49407685 0.44838035 0.41579831
0.51193494 0.4453637 0.40016973
0.53120226 0.44219863 0.38386118
0.54953015 0.43841761 0.36745131
0.5675419 0.43492484 0.35040689
0.58400303 0.42517209 0.32939196
0.59707391 0.42741299 0.32124281
0.29502541 0.49282455 0.56106389
0.31503582 0.48898685 0.54362094
0.33589423 0.49175394 0.53159666
0.35240823 0.48789227 0.51650798
0.37080377 0.48489618 0.49972463
0.39032847 0.48123336 0.48218501
0.40927929 0.47772801 0.46618557
0.42724812 0.47426009 0.44928288
0.44605553 0.47135723 0.43328118
0.46433848 0.4676193 0.41671169
0.48324519 0.46422446 0.39988935
0.5010308 0.46140903 0.38403237
0.52026457 0.45808816 0.36785614
0.53780562 0.45435822 0.35175097
0.55576563 0.45129347 0.33506894
0.57298195 0.4420594 0.31408918
0.58604389 0.44372904 0.30609906
0.28371513 0.50922394 0.54566467
0.30461591 0.50620508 0.52804708
0.32469958 0.50794017 0.51593578
0.3413921 0.50414968 0.50001943
0.3596549 0.50111926 0.48374987
0.37908912 0.49736023 0.46695793
0.39811993 0.49367225 0.45019305
0.41606629 0.4905864 0.43383145
0.4351005 0.4870286 0.41804683
0.45339251 0.48378253 0.40090263
0.47216213 0.48055971 0.38380277
0.49029964 0.47710681 0.36849248
0.50847 0.47459733 0.35234284
0.52639896 0.47094119 0.33544743
0.54506135 0.46706647 0.31920397
0.56167239 0.45813197 0.29830515
0.57494199 0.45930409 0.28996062
0.27243996 0.52440351 0.53005278
0.29439187 0.5229975 0.51329815
0.3132602 0.52368355 0.50130415
0.33075625 0.51991022 0.48448801
0.34945768 0.51657242 0.46804786
0.3682583 0.51293814 0.45155168
0.38692445 0.50938743 0.43501556
0.40542156 0.50614035 0.41796768
0.42369634 0.50314188 0.40236962
0.44215667 0.49936748 0.38585544
0.46125972 0.4962765 0.36857724
0.47958386 0.49303168 0.35293126
0.49733609 0.4903208 0.33701956
0.5153209 0.48692214 0.32003307
0.53450924 0.48252243 0.30426157
0.55112356 0.47449553 0.28299165
0.56433547 0.47556871 0.27454317
0.2615869 0.5404821 0.51430333
0.28265661 0.53876197 0.49672389
0.30194557 0.53974152 0.48569071
0.31985706 0.53574097 0.46846151
0.33879316 0.53259099 0.45220375
0.35721081 0.52930391 0.43578708
0.37599009 0.52508682 0.4191612
0.39429587 0.52197677 0.40219998
0.41264147 0.51949781 0.38638282
0.43109971 0.51522189 0.36989057
0.45046347 0.51192653 0.35297418
0.46856886 0.50903261 0.33700788
0.48658335 0.50590706 0.32110798
0.5046345 0.50273037 0.3048178
0.52313745 0.49857479 0.28839028
0.5403617 0.48984611 0.26699734
0.55360454 0.49147475 0.2593168
0.23652196 0.56991726 0.50342953
0.24990278 0.55756056 0.49876714
0.27157634 0.55355126 0.48158395
0.29113233 0.55517346 0.47000778
0.30864286 0.55168271 0.45294631
0.32741708 0.54856014 0.43625844
0.34578836 0.54460877 0.42019403
0.36488765 0.54062676 0.403579
0.38339931 0.5378226 0.38640165
0.40187466 0.5346328 0.37082779
0.41982096 0.53110278 0.35412693
0.43897754 0.52801776 0.33726943
0.45739174 0.52470011 0.32143676
0.47566402 0.52107716 0.30519903
0.49363929 0.51773506 0.28880453
0.51232153 0.51363057 0.27234519
0.52919573 0.50502992 0.25086153
0.54278803 0.50747985 0.24338293
0.20757967 0.58691776 0.50405526
0.22082704 0.57811904 0.49821734
0.23730433 0.56678963 0.49111021
0.26611727 0.56297171 0.46827877
0.28049618 0.56046414 0.45573616
0.29778999 0.55639052 0.43943644
0.31588042 0.55308235 0.42291796
0.33449131 0.54937315 0.40636361
0.35328329 0.54616141 0.38978851
0.37177193 0.54281068 0.37306595
0.39078701 0.54059362 0.35740936
0.40851629 0.53610539 0.34038615
0.42701721 0.53270715 0.32379377
0.44614428 0.52987063 0.30749047
0.4644044 0.52639973 0.29134977
0.48264581 0.52289331 0.27467811
0.50173944 0.51935452 0.25800145
0.51904589 0.51522934 0.24181712
0.53899163 0.51676548 0.22153723
0.54612464 0.52291942 0.20488918
0.20026284 0.59080446 0.49874008
0.21093667 0.59008801 0.48804367
0.22974747 0.58712763 0.47122562
0.24800533 0.58383787 0.45485914
0.26692086 0.5803355 0.43756068
0.28582734 0.57719171 0.42116666
0.3043192 0.57420266 0.4052546
0.32210767 0.57056534 0.38858783
0.34034318 0.5668928 0.37183535
0.35947317 0.56398225 0.3556546
0.37810493 0.56060076 0.33888674
0.39647549 0.55715948 0.3222971
0.41463584 0.5537318 0.30599415
0.43344784 0.55050808 0.28953564
0.45222104 0.54749954 0.27303898
0.47032052 0.54423368 0.25690198
0.48866242 0.54072237 0.24023712
0.50770599 0.53758562 0.22383821
0.52632666 0.5346036 0.20678723
0.54312032 0.52991319 0.19363928
0.37327105 0.37867808 0.735663
0.38474107 0.37598574 0.7260958
0.40601885 0.36844873 0.71417922
0.42795795 0.36212385 0.70126629
0.44588691 0.35900164 0.68506384
0.46444964 0.35564971 0.66874152
0.48315173 0.35302693 0.65217435
0.50178224 0.34957939 0.63605636
0.51996785 0.34594339 0.6197803
0.53913826 0.34351456 0.60280323
0.55792367 0.33896703 0.58625621
0.57594717 0.33634967 0.57006747
0.59428042 0.33312637 0.55359566
0.61305076 0.32969785 0.53743148
0.63180971 0.32615352 0.52060032
0.65016925 0.32325727 0.50429869
0.66841096 0.31950861 0.48759472
0.68647915 0.3160668 0.47080564
0.69977599 0.31829995 0.44856417
0.71612853 0.3172316 0.43126857
0.37122822 0.38450092 0.73227006
0.37775898 0.38727772 0.71493477
0.39249301 0.38999444 0.69982988
0.41936046 0.38811255 0.68628979
0.43740374 0.38553125 0.6693061
0.45531791 0.38186687 0.65397269
0.47433645 0.37880814 0.63681364
0.49423701 0.37455529 0.62022609
0.51255476 0.37183654 0.60346156
0.53031045 0.36836147 0.58656031
0.54964662 0.36484623 0.5707885
0.56665987 0.36164564 0.55527616
0.58507371 0.35877347 0.53797793
0.60336095 0.35522979 0.5222398
0.62208647 0.35195816 0.50600648
0.63990909 0.34871316 0.48921001
0.65959728 0.34522355 0.47203159
0.67857218 0.34043086 0.4544245
0.69353431 0.33332467 0.42885113
0.70932263 0.32551354 0.42527425
0.37811327 0.39671773 0.69940841
0.38336432 0.40055937 0.68453765
0.4059301 0.40055561 0.66629142
0.42271751 0.39795715 0.65066707
0.44182283 0.39386529 0.63496673
0.46045017 0.39060062 0.61809754
0.47900969 0.38669312 0.60158694
0.4970873 0.38361615 0.58451074
0.51612192 0.38136268 0.56849253
0.53391749 0.37513244 0.55200064
0.5523544 0.37315613 0.53632128
0.57138813 0.37136 0.5196166
0.58840448 0.3670128 0.50385118
0.60727811 0.36414158 0.48782229
0.62614095 0.36132377 0.47195208
0.64617866 0.359734 0.45495737
0.66735095 0.35274434 0.43470311
0.67843962 0.34670419 0.42487848
0.37352866 0.41709554 0.6671499
0.39507651 0.41606992 0.65121412
0.41234201 0.41324049 0.63503683
0.43105143 0.40906167 0.61878037
0.45036697 0.40587223 0.60339731
0.46802825 0.40322661 0.58659136
0.48579055 0.39856565 0.56976408
0.50508219 0.3965677 0.55311191
0.52308398 0.39083129 0.53618014
0.54166085 0.38891208 0.52099228
0.5603525 0.38585114 0.50507247
0.57827908 0.38331771 0.4892596
0.59568673 0.3788597 0.47158802
0.61697316 0.37701404 0.45743906
0.63582915 0.37447518 0.439026
0.65686214 0.36832821 0.41913176
0.66423744 0.36534566 0.40945101
0.36238623 0.43313116 0.65193272
0.38287151 0.4320485 0.63627785
0.40081209 0.42794871 0.61978567
0.4203105 0.42463231 0.60342628
0.43844604 0.42033696 0.58730048
0.45640618 0.41744554 0.57036549
0.47493225 0.41354573 0.55393851
0.49380362 0.41127443 0.53813708
0.51149851 0.40694171 0.52104282
0.53080153 0.40445399 0.50546825
0.550098 0.40090054 0.48926055
0.56709552 0.39802539 0.47291851
0.58542609 0.39516395 0.45622706
0.60497004 0.39144063 0.44095206
0.62458891 0.39041173 0.42537463
0.64462787 0.38401288 0.40320706
0.653557 0.38064909 0.39462709
0.35064191 0.44903588 0.63625884
0.37278003 0.44897395 0.62123793
0.39013857 0.44438922 0.60384512
0.40844047 0.44041824 0.58701062
0.42790747 0.43696022 0.57140982
0.4448235 0.43389714 0.55497169
0.46302015 0.42965895 0.53803742
0.48321843 0.42742932 0.52340341
0.50053978 0.42276382 0.50535893
0.5199315 0.42085743 0.48923337
0.53895408 0.41754782 0.47308314
0.55664909 0.41405571 0.4559077
0.57530475 0.4110623 0.43880391
0.59502596 0.40916246 0.42533231
0.61339295 0.40733051 0.40917921
0.63366109 0.39963049 0.38662374
0.64247149 0.3966772 0.37825465
0.33996052 0.46522713 0.62037402
0.36138827 0.46501231 0.60505378
0.37921363 0.46151131 0.58797526
0.39738166 0.45604563 0.57199085
0.41505629 0.45204854 0.55506802
0.43384731 0.44937521 0.53849232
0.45257801 0.44650912 0.52194273
0.47195232 0.44337302 0.50651503
0.48786026 0.43843699 0.4877919
0.50818926 0.43704569 0.47379792
0.52658004 0.4326942 0.45642769
0.54539609 0.4295122 0.44058502
0.56452781 0.42696124 0.42401123
0.58414054 0.42442018 0.40802407
0.60322136 0.42363304 0.39159048
0.62299836 0.41550362 0.37066627
0.63064927 0.41322201 0.36191344
0.32857966 0.48111361 0.60484421
0.34996921 0.4804486 0.58901978
0.36865377 0.47784263 0.57274497
0.38672632 0.473023 0.55693746
0.40468723 0.46903801 0.53931963
0.42254966 0.46554005 0.52332032
0.44133157 0.46277654 0.50668645
0.46033454 0.45987856 0.49077904
0.47686541 0.45427251 0.47250509
0.4972139 0.45236534 0.45709133
0.51556432 0.4487955 0.44093919
0.53460687 0.44547313 0.42517734
0.55380982 0.44376385 0.40891397
0.57272083 0.44165039 0.39399219
0.59226227 0.44083494 0.37721872
0.61232126 0.43054426 0.35385573
0.61994737 0.42863029 0.34660637
0.31722039 0.49650556 0.5888322
0.33932495 0.49639076 0.5728637
0.35728383 0.4938181 0.55719697
0.37475216 0.4899888 0.54165149
0.39360714 0.48468125 0.52284229
0.41235548 0.48220205 0.50762105
0.43089551 0.47862321 0.49107373
0.44966042 0.47524041 0.475438
0.46629459 0.46924102 0.45753253
0.48584551 0.46815598 0.44103765
0.50464743 0.46543956 0.42524624
0.52387255 0.46340394 0.40985239
0.54301941 0.46078539 0.39292896
0.56162775 0.45796108 0.37849724
0.58114648 0.4564321 0.36226261
0.60136157 0.44712758 0.33953512
0.60874254 0.44458377 0.33123887
0.30603623 0.51220083 0.57311982
0.32802051 0.51247013 0.55801439
0.34598041 0.50944793 0.54141414
0.36318576 0.50543571 0.52511466
0.38234949 0.50096518 0.50769866
0.40179598 0.49837828 0.49154568
0.42020428 0.49506325 0.47458458
0.43910772 0.4924826 0.45853758
0.45592773 0.48678708 0.44187796
0.4753328 0.48508358 0.42529356
0.49371982 0.48094141 0.4081471
0.51201046 0.47814846 0.39353335
0.53203452 0.4778384 0.3780036
0.55093998 0.47598624 0.36296117
0.570328 0.47219497 0.34681082
0.59035528 0.4629811 0.32325423
0.59817499 0.4611432 0.31536853
0.29491597 0.52779782 0.5572902
0.31709248 0.52750474 0.54148424
0.33477378 0.52460575 0.52631044
0.35228401 0.52100372 0.50962114
0.37165332 0.51637655 0.4919163
0.39045101 0.51358318 0.47612596
0.4094587 0.51160634 0.45993316
0.42692643 0.50945139 0.44317257
0.44444793 0.50371307 0.42564178
0.46433419 0.50116003 0.40997756
0.4824478 0.49618578 0.39249456
0.50069803 0.49263418 0.3773334
0.51971024 0.49247319 0.3620435
0.53923398 0.49111819 0.34743178
0.55927092 0.48751628 0.33153987
0.57952213 0.47904277 0.30738366
0.5864678 0.47710943 0.29928434
0.28415161 0.54389548 0.54174232
0.30596173 0.54417264 0.52663994
0.32443559 0.54040664 0.51070344
0.34027833 0.53632653 0.49369156
0.36021477 0.53203607 0.47527742
0.37862545 0.52837735 0.46009099
0.39801294 0.52524996 0.4446758
0.41578847 0.52299917 0.42804611
0.43382901 0.51798785 0.4102906
0.4537338 0.51521719 0.39464664
0.47221595 0.51281738 0.3771745
0.48929137 0.50867909 0.36212945
0.50891763 0.50750113 0.34716725
0.52810663 0.50663757 0.33140767
0.54855865 0.50422937 0.31600368
0.56865054 0.49534094 0.29174244
0.5761959 0.49300468 0.28415132
0.27325422 0.56014454 0.52596736
0.2951867 0.56132746 0.50997961
0.31224936 0.55592632 0.49410272
0.33205885 0.55276221 0.4773066
0.35096931 0.54933405 0.45970178
0.36854208 0.54540062 0.44418383
0.38693672 0.54099321 0.42824781
0.40550649 0.53937066 0.41260552
0.42262632 0.53358972 0.39487755
0.44242901 0.53204334 0.37967062
0.46171671 0.53016752 0.36176538
0.47955614 0.52594596 0.34634387
0.49876004 0.52452481 0.33280718
0.51674658 0.52159232 0.31495583
0.5377388 0.5201335 0.30098689
0.55767441 0.51063728 0.2758714
0.56495792 0.50867194 0.26850307
0.24611878 0.58397186 0.51329505
0.26041615 0.57723951 0.511078
0.28479302 0.57656944 0.49539232
0.30306137 0.57277918 0.4790113
0.32260746 0.57022536 0.46445918
0.34016579 0.56543636 0.44562519
0.35792315 0.56249779 0.42915487
0.37635177 0.55777824 0.41305327
0.3946268 0.55717236 0.39787042
0.41150278 0.55061567 0.37911499
0.43172759 0.54897493 0.36375046
0.45139772 0.54629529 0.34611046
0.46804219 0.54201198 0.33181131
0.48803276 0.54092276 0.31697905
0.5087505 0.54006994 0.30074322
0.52702111 0.53574789 0.28524494
0.54635996 0.52664459 0.26023495
0.55412394 0.52655399 0.24996042
0.21785975 0.60448515 0.51447129
0.23272884 0.59606725 0.51032007
0.25059968 0.58972967 0.50486124
0.27639657 0.59556425 0.48250866
0.29403943 0.58883989 0.46555066
0.31191736 0.58543849 0.45119238
0.329467 0.58182013 0.43321431
0.35028058 0.58176696 0.41656029
0.36892319 0.57849967 0.40064418
0.38618594 0.57526314 0.38453352
0.40609127 0.57338202 0.36688769
0.42328441 0.56657177 0.35046732
0.4434464 0.56597406 0.3322804
0.46028304 0.56168258 0.31820524
0.47846395 0.55795765 0.30414927
0.49698263 0.55598378 0.28688383
0.51586753 0.55220366 0.27082896
0.53476882 0.54827505 0.24969292
0.55308211 0.53523237 0.23076391
0.55975938 0.5405665 0.21455538
0.21327436 0.60836136 0.51023602
0.22480696 0.60707939 0.49948001
0.2437377 0.60366631 0.48336208
0.26192588 0.60036588 0.4666419
0.28045112 0.59753668 0.4497751
0.29907972 0.59408736 0.43318272
0.31771022 0.59090459 0.41675973
0.33649617 0.58769119 0.4003818
0.35447484 0.58424163 0.38380229
0.37288052 0.58099163 0.36766088
0.39142323 0.57737625 0.35067797
0.40999281 0.57443285 0.33462572
0.42863816 0.57098818 0.31796563
0.44729745 0.56762916 0.30136001
0.46589524 0.56434005 0.28492081
0.48433465 0.56112778 0.26844561
0.50233608 0.55743355 0.2519244
0.52138096 0.55461311 0.23568809
0.53942114 0.55128169 0.21939731
0.55675977 0.54738486 0.20494854
0.38527858 0.39813417 0.74556065
0.3970893 0.3952139 0.7356708
0.4131484 0.38829482 0.72078693
0.43279964 0.37931049 0.70310026
0.45136505 0.3757028 0.68675679
0.46975476 0.37220544 0.6708582
0.48843557 0.36931062 0.65424681
0.50685936 0.36554116 0.63800883
0.52492398 0.36227256 0.62162459
0.54465395 0.35950184 0.60428184
0.56295919 0.35571152 0.58818448
0.58097082 0.35264659 0.572312
0.59951097 0.34878927 0.55616105
0.61829466 0.34539771 0.53915191
0.63661826 0.34299099 0.52227843
0.6550405 0.33913171 0.50635612
0.67327678 0.33583915 0.49038887
0.69301766 0.33400488 0.4730432
0.71231538 0.33796811 0.45537758
0.72798926 0.33663607 0.44171071
0.38360929 0.40306783 0.74090004
0.38938361 0.40591621 0.72523546
0.40497017 0.403615 0.70951539
0.42258227 0.39531028 0.68863899
0.44127917 0.39144874 0.67232335
0.4599542 0.38776034 0.65629983
0.47867042 0.38478863 0.63979524
0.496889 0.38112891 0.62347162
0.51485509 0.37824756 0.6074276
0.53463948 0.37493038 0.59015167
0.55240381 0.37130702 0.57432961
0.57130146 0.36763895 0.55823255
0.59001303 0.36409158 0.54166305
0.60804135 0.36127412 0.52517116
0.62671357 0.35806954 0.5082345
0.64469033 0.35472244 0.49243426
0.66309845 0.35155207 0.4761461
0.68659383 0.35008132 0.45859766
0.70404392 0.35177839 0.44184649
0.72179121 0.34454715 0.43544114
0.39028054 0.4163692 0.70972741
0.39679128 0.41473585 0.69663793
0.41224593 0.41115212 0.6723597
0.43031013 0.40691125 0.65695357
0.44850141 0.40371656 0.64108312
0.46718097 0.40092379 0.62469852
0.48532176 0.39762247 0.60790706
0.50393254 0.39365059 0.59169918
0.52350503 0.39090383 0.57422352
0.54141307 0.3873601 0.5585351
0.56013083 0.38343942 0.54262412
0.57881141 0.38035071 0.52573621
0.59721237 0.37739301 0.50933039
0.61516356 0.37386984 0.49313402
0.63332534 0.37093931 0.47719276
0.65236413 0.36773092 0.45927286
0.67377555 0.36342609 0.44377649
0.69255942 0.36162931 0.43670666
0.38562083 0.42902243 0.67134011
0.40082705 0.42671335 0.65790564
0.41927826 0.42275864 0.6414035
0.43777281 0.41990685 0.62476736
0.45595407 0.41648501 0.60922205
0.47408879 0.41353744 0.59216809
0.49346083 0.40970504 0.57568944
0.51284802 0.40674794 0.55825508
0.5301041 0.40359861 0.54276991
0.54886252 0.39975941 0.52693081
0.5676809 0.3966735 0.50947034
0.58666283 0.39296323 0.49337709
0.6040448 0.38993198 0.47724903
0.62233049 0.38671553 0.46142185
0.64160234 0.38340378 0.44391191
0.66005182 0.37979549 0.42768717
0.67041427 0.37565625 0.41648757
0.3741082 0.444695 0.65590984
0.38996398 0.44278789 0.64259881
0.40888017 0.43881536 0.6256988
0.42713535 0.43602562 0.60886919
0.44541192 0.43286759 0.59236348
0.46424598 0.42901123 0.57659531
0.48202157 0.42582321 0.56033456
0.50156087 0.42262155 0.54324889
0.51927686 0.4193927 0.52707112
0.53804809 0.41578078 0.51085079
0.55662364 0.41282892 0.4937433
0.57564825 0.40913725 0.47708631
0.59330779 0.40613788 0.46126819
0.61169171 0.40229326 0.44610465
0.63114607 0.39924169 0.42798007
0.64952403 0.39533389 0.41209626
0.659823 0.39114767 0.40128899
0.36359674 0.46089113 0.6396721
0.37909442 0.45858955 0.62666488
0.39781767 0.45486426 0.60993779
0.41555506 0.45172727 0.59391147
0.43400234 0.44872707 0.57698238
0.45322859 0.44504118 0.56096089
0.47092348 0.44177091 0.54472184
0.4911899 0.43827385 0.5274781
0.50922316 0.43467391 0.51174891
0.52727968 0.43139672 0.4952246
0.54570323 0.42851901 0.4784435
0.56433332 0.4254021 0.46147192
0.58255798 0.4220258 0.44569337
0.60067677 0.41856372 0.42999136
0.61974233 0.41509724 0.41308951
0.63833302 0.41162801 0.39609838
0.64871025 0.40799332 0.38534224
0.35204363 0.47700262 0.62406641
0.36777508 0.47484761 0.6109851
0.38646549 0.47094393 0.59465933
0.40470952 0.46777439 0.57774639
0.42337352 0.46473885 0.56114149
0.44170713 0.46131831 0.54494822
0.45977014 0.45774269 0.52819097
0.48006713 0.45479405 0.51137304
0.49795848 0.4508878 0.49529517
0.5157463 0.44793755 0.47919142
0.53465289 0.44456601 0.46245146
0.55348295 0.44096756 0.4457854
0.57121283 0.437783 0.43014777
0.58984858 0.43487626 0.41368628
0.60923153 0.43123621 0.39641798
0.62700003 0.42796987 0.38015771
0.63731819 0.42391908 0.36956453
0.34052736 0.49338961 0.60815012
0.35695767 0.49110091 0.59494269
0.37556595 0.48713017 0.57843542
0.39373887 0.48371625 0.56194413
0.41315156 0.48000956 0.54568446
0.43098688 0.47697645 0.52945733
0.44860089 0.47431755 0.51238549
0.46940351 0.47063911 0.49542987
0.48674113 0.46726346 0.47950137
0.50427651 0.46467406 0.46299887
0.52385163 0.46065497 0.44633019
0.54315209 0.45676929 0.42964387
0.56034398 0.45397496 0.41423702
0.57852024 0.45091283 0.39813888
0.5968588 0.44746757 0.3813225
0.61543107 0.44416833 0.36459684
0.6266697 0.43964493 0.35518777
0.33054584 0.50864506 0.59153187
0.34650064 0.50659513 0.57972765
0.36395937 0.50301659 0.56338215
0.3828885 0.49940729 0.54660952
0.40199846 0.49594951 0.53033268
0.42000204 0.49271089 0.51426029
0.43831098 0.489326 0.49710691
0.45886189 0.48601639 0.47988272
0.47628701 0.4826833 0.46430457
0.49386686 0.47984517 0.44788134
0.51302689 0.47640342 0.43080306
0.53213888 0.47272348 0.41394818
0.54958159 0.46954054 0.39883304
0.56769526 0.46667069 0.38219953
0.58698821 0.46326101 0.36534929
0.60524708 0.45966232 0.34892917
0.61502391 0.45563889 0.33934295
0.31958431 0.52492887 0.57569623
0.33559781 0.52267146 0.56307948
0.35271943 0.51933646 0.54710329
0.37174958 0.5157789 0.53031051
0.39071107 0.51269877 0.51333725
0.4084242 0.50973958 0.49780273
0.4271906 0.50532103 0.48086691
0.44768554 0.50257027 0.46302533
0.4644047 0.49885261 0.4477762
0.48296171 0.49536997 0.43205893
0.50223613 0.49249423 0.41447282
0.52111274 0.48892963 0.39766824
0.53910494 0.48559612 0.38278627
0.55659628 0.48258585 0.36618841
0.57571191 0.47958732 0.34907997
0.59369808 0.47594178 0.33343875
0.60367095 0.47144651 0.32263541
0.30757266 0.5412237 0.56025743
0.32381564 0.53927338 0.54723239
0.34186751 0.53554773 0.53087604
0.36022717 0.53246093 0.51444614
0.37919217 0.52929115 0.49764478
0.39716727 0.52569103 0.48198628
0.41566366 0.52206111 0.46494603
0.43590599 0.51954514 0.44695449
0.45313317 0.51550448 0.43181431
0.47117174 0.51228917 0.41625738
0.4902674 0.50883353 0.39939046
0.50982744 0.5050658 0.38204587
0.52722889 0.50221932 0.36656713
0.54531336 0.49907422 0.35070562
0.56487644 0.49596393 0.33339918
0.58312154 0.49189782 0.31703079
0.59283334 0.48694658 0.30730462
0.29695064 0.55634898 0.54594767
0.31272167 0.55518019 0.53204572
0.33094466 0.55099261 0.51574147
0.34894919 0.54781616 0.49963772
0.36746556 0.54498661 0.48279512
0.38622493 0.54126537 0.46712828
0.40541393 0.5371744 0.4500159
0.42542833 0.53494865 0.43193007
0.44234639 0.53096521 0.41651666
0.46027786 0.52788007 0.40128148
0.47951353 0.52481246 0.38432372
0.49844795 0.52147454 0.36655807
0.51650649 0.51801598 0.35099208
0.53471607 0.51452339 0.33574533
0.55420583 0.51150399 0.31832731
0.57280648 0.50732684 0.30151677
0.58127326 0.50324804 0.2905587
0.28578919 0.57252246 0.53068268
0.30152905 0.57070911 0.51678216
0.31987119 0.56669033 0.50061309
0.33808005 0.56367183 0.48428464
0.35634863 0.56052911 0.46774328
0.37506515 0.55707407 0.45149136
0.39461118 0.55267406 0.43457532
0.41471362 0.55037677 0.41636264
0.43163532 0.54667515 0.40115488
0.44956946 0.54360223 0.38564408
0.46863407 0.54007375 0.36889791
0.48735774 0.53720105 0.35138059
0.50526309 0.533337 0.33615077
0.52359754 0.53041196 0.32009792
0.54265302 0.52729046 0.30265713
0.56157011 0.5234468 0.28618717
0.56997317 0.51980621 0.27516329
0.26087749 0.60468823 0.52617002
0.2703377 0.59599918 0.5176245
0.29078132 0.5865761 0.50097382
0.30903673 0.58287632 0.48493087
0.32706553 0.57957923 0.46905184
0.34521639 0.57658952 0.4528681
0.36390048 0.57339978 0.43574333
0.38345826 0.56909692 0.41873503
0.403467 0.56674808 0.40055406
0.42008024 0.5627811 0.38535702
0.43809706 0.55989397 0.36992681
0.45777363 0.55612302 0.35316825
0.47672457 0.55268139 0.33609438
0.49462193 0.54899466 0.32024932
0.51270986 0.54648644 0.30437994
0.53180188 0.54306126 0.28687251
0.55152315 0.54029489 0.27024984
0.56550443 0.54600751 0.25395
0.2318908 0.62330842 0.52670658
0.24507326 0.61488485 0.52194858
0.26351196 0.61394989 0.50299454
0.28037757 0.61095738 0.48533845
0.29895592 0.60544008 0.46962929
0.31733024 0.60250282 0.45366085
0.33566839 0.5990293 0.43740213
0.35462356 0.59570116 0.42008471
0.37387729 0.59190428 0.40352345
0.39278817 0.58887136 0.38636577
0.41032976 0.58630311 0.37070429
0.42916143 0.58262229 0.35440624
0.44747299 0.57873487 0.33790088
0.46592957 0.57563168 0.32121372
0.48503059 0.57227832 0.30473447
0.50359839 0.5690164 0.28814566
0.52178621 0.56654406 0.27097273
0.54232967 0.56175673 0.25495839
0.5662868 0.55444407 0.24132824
0.57422429 0.55878508 0.22540009
0.22633803 0.62564814 0.52219999
0.23832458 0.62326336 0.51058793
0.25550002 0.61995423 0.4960916
0.27581531 0.61603874 0.47728467
0.29388922 0.61394304 0.46158683
0.31275821 0.61110449 0.44535947
0.33117807 0.60767245 0.42866588
0.349635 0.60451818 0.41225743
0.36803949 0.60119998 0.39598048
0.38640648 0.5973146 0.37898064
0.40486509 0.59511292 0.36356437
0.42324209 0.59102213 0.34660339
0.44232512 0.58802819 0.32992637
0.46082574 0.58485746 0.31359971
0.47925085 0.58114731 0.29680789
0.49790734 0.5781554 0.28062356
0.51584637 0.57431686 0.26410925
0.53418344 0.57129109 0.2480725
0.55371171 0.56767887 0.23088348
0.56932205 0.56432021 0.21699345
0.39745909 0.41682982 0.7556591
0.40966201 0.41518831 0.74580681
0.42325473 0.41264403 0.73323727
0.71312779 0.35967416 0.47507226
0.72566992 0.35856676 0.46503007
0.7397005 0.35572559 0.45194447
0.3951084 0.42053187 0.75164676
0.40182024 0.42592293 0.73537117
0.41691971 0.42366898 0.72181529
0.70628327 0.37028444 0.46655738
0.71643287 0.37131667 0.45300078
0.73441297 0.36356205 0.44531476
0.40145099 0.43354762 0.7179752
0.40949947 0.43478799 0.71232027
0.69891506 0.38250351 0.455459
0.70725447 0.3802861 0.44769061
0.27289855 0.6231063 0.53784144
0.28033924 0.61891031 0.53164721
0.5702371 0.56819439 0.27420509
0.58136827 0.56636739 0.26332378
0.24389064 0.64138627 0.53740275
0.25668502 0.63628709 0.53066468
0.27463454 0.63473165 0.51135182
0.29187471 0.63257265 0.49433851
0.31060195 0.62927598 0.47893584
0.32995963 0.62590891 0.46318674
0.34844774 0.62224489 0.44633579
0.36697119 0.61847788 0.42946851
0.38596529 0.61515522 0.41277015
0.40491414 0.61223942 0.396222
0.42300588 0.60859078 0.38003647
0.44147027 0.60590029 0.3638531
0.46018225 0.60198718 0.34684217
0.47867405 0.59765053 0.33025968
0.49811989 0.59491658 0.31413925
0.51662248 0.59187651 0.29727519
0.53468478 0.58941907 0.28078008
0.55472952 0.58450776 0.26472437
0.57559693 0.57925355 0.24956691
0.58728254 0.57772791 0.23585927
0.23676771 0.64087301 0.53187871
0.24959368 0.6390878 0.52117944
0.26600367 0.63663942 0.50767922
0.2900095 0.6330632 0.48732257
0.30755651 0.63119876 0.47197795
0.32562768 0.62843281 0.4562006
0.34438139 0.62566781 0.43974888
0.3632291 0.62317675 0.42293429
0.38101953 0.61958444 0.40676296
0.39990085 0.61682761 0.39061368
0.41891474 0.61351824 0.37382245
0.43696433 0.61006284 0.3575505
0.4556179 0.60637307 0.34038186
0.47389013 0.60347164 0.32527471
0.49220759 0.59926164 0.30880153
0.51045591 0.59550977 0.29220545
0.52927661 0.59164619 0.27566493
0.54682153 0.58774042 0.25930226
0.56585878 0.58383977 0.24234712
0.58168012 0.58072054 0.22793996
0.40967959 0.4368872 0.76625878
0.42141968 0.43486816 0.75604266
0.43586111 0.43266797 0.74352932
0.72622663 0.38098836 0.48567486
0.73761493 0.37800151 0.47497964
0.75144202 0.37538075 0.46228826
0.40841353 0.44089484 0.76181781
0.4139992 0.44506025 0.74648154
0.43015987 0.44229853 0.732149
0.71836561 0.38959384 0.47596383
0.72912759 0.3893041 0.46373916
0.74718434 0.38320452 0.45558667
0.41477638 0.45297998 0.72953415
0.42113692 0.45347035 0.72185445
0.71036977 0.40176845 0.46440625
0.72009951 0.39946383 0.45740879
0.678397 0.47583199 0.3986491
0.66859061 0.49277174 0.37930715
0.35550892 0.56656575 0.62587696
0.31087428 0.62876225 0.56544662
0.28416514 0.64062613 0.54946756
0.29452413 0.637151 0.54415452
0.58446592 0.58579862 0.28625524
0.595734 0.58387995 0.27351427
0.60274798 0.58485401 0.26159537
0.25698799 0.65868282 0.5485698
0.26869494 0.65454656 0.54102182
0.28717905 0.65239561 0.52283168
0.30538774 0.64952564 0.50506437
0.32397348 0.64756417 0.48864281
0.34252089 0.64419734 0.47310734
0.36058199 0.6408934 0.45697618
0.37990683 0.63738394 0.43965602
0.39841348 0.63383865 0.42314231
0.41684788 0.63087785 0.40700555
0.43463665 0.62685204 0.39054251
0.45359474 0.6244905 0.37443018
0.47228557 0.62040544 0.3576721
0.49176574 0.61634731 0.34113848
0.51007217 0.61407781 0.32477057
0.52863723 0.61094064 0.30761898
0.54671472 0.60764122 0.2912935
0.56555229 0.60287678 0.27518523
0.58488905 0.59967381 0.25834703
0.60001922 0.59568107 0.24606001
0.26257652 0.65410459 0.52876675
0.27901733 0.65209198 0.51513445
0.30448264 0.64976817 0.49457526
0.32107097 0.646667 0.47959697
0.33918577 0.64471221 0.46438515
0.35874277 0.64406478 0.44967484
0.37582833 0.64128721 0.43334675
0.39357501 0.63894653 0.41747642
0.41253948 0.63544685 0.40052676
0.43056804 0.63238066 0.38449001
0.44957215 0.62878609 0.36770201
0.46764457 0.62540972 0.35154092
0.485964 0.62159562 0.33625448
0.50462395 0.61697805 0.31934345
0.52105123 0.61152136 0.3028115
0.54031414 0.60654581 0.28478897
0.55367959 0.60129857 0.27001977
0.58108002 0.59517407 0.24540389
0.58841938 0.59482431 0.23918653
0.42213517 0.45502758 0.77551818
0.43440038 0.45390701 0.76530409
0.44694942 0.45118767 0.75341249
0.73855311 0.39963037 0.4948653
0.74955136 0.39703053 0.48498976
0.76367682 0.39449728 0.47240627
0.42145485 0.46158189 0.7735092
0.4267264 0.46398777 0.75749254
0.44370329 0.46148634 0.74248052
0.73083144 0.40843296 0.48622215
0.74246663 0.40790892 0.47616351
0.76011628 0.40175188 0.46604764
0.42189986 0.48212171 0.74001431
0.4301402 0.47520828 0.7281217
0.72080618 0.42512441 0.47159612
0.73200804 0.42270565 0.4639082
0.74665636 0.4264071 0.45665658
0.41073763 0.49960756 0.72471714
0.4190802 0.49221402 0.71160191
0.71059614 0.44298577 0.45668435
0.72226423 0.44161075 0.44767416
0.73574513 0.44417 0.44004393
0.39964753 0.51556838 0.70906204
0.40751308 0.5082587 0.69643569
0.6999293 0.45904177 0.44128942
0.71134347 0.45796967 0.43165898
0.72803503 0.45883501 0.42452538
0.38857383 0.53106141 0.69284785
0.39680356 0.52452278 0.68098807
0.68873042 0.47539604 0.42533457
0.69956762 0.47394919 0.41663849
0.7157504 0.47574419 0.40872312
0.37781048 0.54713368 0.67741919
0.38545024 0.5400061 0.66488522
0.67711544 0.49017632 0.40938044
0.68936294 0.48991734 0.40068185
0.70350045 0.49224234 0.3925246
0.36690074 0.56248653 0.66185349
0.37445009 0.55580795 0.64919817
0.66611189 0.50592953 0.39406288
0.67847639 0.50616986 0.38480341
0.69196767 0.50892353 0.37625349
0.35548025 0.57846534 0.64587349
0.36339378 0.57228434 0.6346277
0.65581679 0.52231622 0.3793385
0.6673618 0.52202702 0.36914432
0.68216914 0.52423012 0.36148179
0.34396458 0.59511137 0.63023722
0.35211527 0.58863258 0.61872256
0.64386851 0.53867549 0.36250031
0.65604734 0.53776002 0.35329127
0.67335266 0.53823274 0.34669554
0.33350617 0.61106336 0.61433756
0.34087104 0.60449594 0.60272706
0.63268411 0.55525136 0.34653616
0.64592683 0.55431861 0.33751142
0.66047549 0.55289793 0.33065164
0.32244927 0.62653673 0.598719
0.32950455 0.61933434 0.58629173
0.62123483 0.57058132 0.33048379
0.63484061 0.570171 0.32187116
0.64789242 0.57042062 0.31601071
0.31170279 0.64194626 0.58271855
0.31882215 0.63539445 0.57100952
0.61019379 0.58640778 0.31487572
0.62458938 0.58640903 0.30617058
0.63707405 0.58676159 0.29896963
0.29782051 0.65778089 0.56550992
0.30770355 0.65051556 0.55591106
0.59925872 0.60195804 0.29975045
0.61133862 0.6002087 0.2863766
0.62052369 0.60334837 0.27644825
0.27016389 0.67439234 0.56090617
0.28163558 0.67253006 0.55279577
0.3009451 0.67003989 0.53454375
0.3187018 0.66775167 0.51638544
0.33664614 0.66576719 0.4995358
0.35417086 0.66167963 0.48341215
0.37360573 0.65789038 0.46781313
0.39250273 0.65588921 0.44945312
0.40956479 0.65254223 0.43156409
0.42760879 0.64917618 0.41508687
0.44609493 0.64604318 0.39892328
0.46508569 0.64272106 0.38214028
0.48509079 0.63891476 0.36655533
0.50408536 0.63447285 0.35211623
0.5226028 0.63097137 0.33502066
0.54076105 0.62855381 0.31760526
0.55975425 0.6249373 0.30184889
0.57929242 0.62037659 0.2870338
0.59717846 0.61773872 0.26992857
0.61376745 0.61281753 0.25762308
0.34260637 0.67529172 0.49364233
0.35590947 0.67028987 0.47812128
0.37093621 0.665151 0.46049094
0.38795155 0.66323566 0.44318652
0.40581882 0.66062379 0.42658865
0.42405695 0.65705812 0.41003335
0.44289547 0.65377128 0.39324963
0.46135843 0.65039551 0.37699282
0.48017997 0.64673835 0.3605932
0.49950808 0.64303321 0.34548771
0.51792252 0.63900906 0.33157778
0.53663564 0.63735121 0.31782556
0.55175138 0.63149762 0.3025986
0.43345982 0.47421163 0.78570491
0.44538748 0.47178388 0.77467692
0.45808011 0.46797854 0.76187688
0.75296313 0.42175233 0.5068661
0.7619217 0.41560751 0.4944762
0.7756086 0.41273016 0.48169732
0.43035752 0.48564851 0.778844
0.43944919 0.48365313 0.76945877
0.45623046 0.48034424 0.75464821
0.74305755 0.4260909 0.49633586
0.75670165 0.42589295 0.49063587
0.77286607 0.42230874 0.47393274
0.41952139 0.50345302 0.76286584
0.42764157 0.50041199 0.75356627
0.44461209 0.49651051 0.73821062
0.73276132 0.44282877 0.48096979
0.74423808 0.44231957 0.47274673
0.76143771 0.4405421 0.45751905
