# .PCD v0.7 - Point Cloud Data file format
VERSION 0.7
FIELDS x y z
SIZE 4 4 4
TYPE F F F
COUNT 1 1 1
WIDTH 1405
HEIGHT 1
VIEWPOINT 0 0 0 1 0 0 0
POINTS 1405
DATA ascii
-0.15830004 -0.45431447 0.31430981
-0.14597034 -0.44555613 0.31427506
0.20496535 -0.1805082 0.31397915
0.21533412 -0.17298125 0.31592503
0.15260154 -0.81287366 0.34099981
0.16700445 -0.80762088 0.33665636
0.18467246 -0.79453814 0.33596337
0.19449572 -0.78269619 0.33644953
0.51499116 -0.5399009 0.33659962
0.53050482 -0.53379869 0.33633527
0.54749507 -0.51973784 0.33640343
0.55428159 -0.50602633 0.33321995
0.14425856 -0.80515158 0.33624214
0.14993708 -0.79487735 0.33724907
0.17296675 -0.77538931 0.33616075
0.18582384 -0.77164459 0.33570185
0.5049423 -0.53148615 0.33733127
0.51378584 -0.51823282 0.33604577
0.53706431 -0.50196105 0.3370266
0.54795575 -0.49902061 0.33493418
0.14559616 -0.7811842 0.33744749
0.15996327 -0.7693634 0.3355419
0.17386526 -0.762447 0.33076948
0.49749568 -0.5172317 0.3360607
0.50985968 -0.50561059 0.33664635
0.52257049 -0.49643797 0.33632475
-0.15292403 -0.48863852 0.3376013
-0.1384331 -0.48159429 0.33718908
-0.1185129 -0.46831203 0.33608857
-0.1093109 -0.45605898 0.33783489
0.21036713 -0.21504873 0.33982137
0.22650936 -0.20636502 0.33656439
0.24396743 -0.1937456 0.336539
0.25223225 -0.18112883 0.33047974
-0.15957031 -0.47954875 0.33555546
-0.15364811 -0.46538347 0.33729181
-0.13782367 -0.44872919 0.33655137
-0.11844084 -0.44547254 0.33646587
0.1993468 -0.20248443 0.33795685
0.20953646 -0.18864179 0.33647108
0.22943853 -0.1766759 0.33740199
0.24682719 -0.17391571 0.34237418
-0.15950051 -0.45607322 0.33563963
-0.14485827 -0.44450444 0.33857834
0.20506127 -0.18010738 0.33796036
0.21735445 -0.17168993 0.33494514
0.16727135 -0.80752778 0.35872132
0.18414116 -0.79589885 0.35988367
0.19385418 -0.78220409 0.35790795
0.51459908 -0.53983533 0.36143768
0.53123844 -0.53358448 0.35956377
0.54765654 -0.52052319 0.35830906
0.55489486 -0.50735408 0.35467011
0.14291587 -0.80487859 0.35805547
0.14978959 -0.79498911 0.3593547
0.1753332 -0.776214 0.35928622
0.18507694 -0.77041292 0.35831097
0.50513256 -0.5323177 0.35927325
0.51414919 -0.5200175 0.35896826
0.53719568 -0.50284898 0.35978374
0.54982591 -0.50057799 0.35872716
0.14550543 -0.78084278 0.35878557
0.15950915 -0.76961362 0.35869065
0.17322686 -0.76219213 0.3653549
0.49649325 -0.51790488 0.35754737
0.51037371 -0.50523102 0.35926819
0.52169865 -0.4968459 0.35990116
-0.15630004 -0.48546422 0.35901472
-0.13836583 -0.48181504 0.35910353
-0.11811987 -0.4680796 0.3600314
-0.1102556 -0.4536047 0.35867339
0.21195263 -0.21835631 0.35957113
0.22742394 -0.20604675 0.36043286
0.24303074 -0.19373038 0.35938981
0.25181544 -0.18085024 0.36060849
-0.16140136 -0.47852227 0.35571408
-0.15416268 -0.46517867 0.35904452
-0.13707229 -0.44835559 0.35916778
-0.11929393 -0.44471675 0.35866323
0.19880834 -0.20120066 0.3592352
0.20912102 -0.19005381 0.35888052
0.22844848 -0.17601237 0.35978907
0.24675989 -0.17532033 0.35676265
-0.15877372 -0.45513093 0.35969841
-0.14643031 -0.44556692 0.36201122
0.20564769 -0.17981304 0.3591643
0.21528618 -0.17249003 0.35936958
0.15211588 -0.81279999 0.37802517
0.16765437 -0.80769086 0.38104221
0.18471302 -0.79523951 0.38115063
0.19393519 -0.78283906 0.38211909
0.21611103 -0.7617892 0.39028171
0.2456371 -0.73948556 0.39189553
0.26840287 -0.72228956 0.39100578
0.29129153 -0.70500082 0.39011121
0.31430376 -0.68761861 0.38921192
0.33743691 -0.67013597 0.38830975
0.36058173 -0.65237093 0.38746411
0.37513989 -0.64165485 0.39249235
0.39863312 -0.62390941 0.3915897
0.42225516 -0.60606658 0.39068204
0.44600692 -0.58812571 0.38976943
0.46988976 -0.570086 0.38885176
0.49107331 -0.55413067 0.39042157
0.51350582 -0.54027915 0.38313028
0.53067166 -0.53395367 0.3808077
0.54719937 -0.52051646 0.382092
0.55506444 -0.50799626 0.38467053
0.14211881 -0.80433637 0.38269013
0.14999746 -0.79559362 0.38168055
0.17524523 -0.77644247 0.38096109
0.18742052 -0.7692591 0.38397947
0.20965625 -0.7497884 0.39056104
0.22796123 -0.7370851 0.38994482
0.24817115 -0.72247344 0.39004278
0.26682574 -0.70710558 0.39020607
0.28612819 -0.69375086 0.39044589
0.30707335 -0.6771493 0.39040023
0.32549286 -0.66288257 0.39006394
0.34503531 -0.64991426 0.38992292
0.36246666 -0.63438189 0.38980353
0.38170534 -0.62111366 0.39007556
0.40152448 -0.60763538 0.39002267
0.42007923 -0.59244412 0.38991413
0.44007882 -0.57655823 0.39014435
0.45815095 -0.56350529 0.38935804
0.47601348 -0.54879522 0.3896932
0.49878061 -0.53459859 0.3856042
0.51413381 -0.51964223 0.38268194
0.53639603 -0.5029912 0.38152516
0.54716778 -0.49790698 0.38130292
0.14458972 -0.77849376 0.38297647
0.15706822 -0.76764137 0.38296607
0.17271417 -0.74840748 0.39007178
0.19298407 -0.7329542 0.39055943
0.21358494 -0.71908379 0.39051834
0.23395988 -0.70471013 0.38987705
0.2510511 -0.68941754 0.39022192
0.26792556 -0.67689788 0.38977316
0.2895571 -0.65986323 0.38953725
0.30907002 -0.64482105 0.38989747
0.32738468 -0.63107926 0.38969299
0.34599984 -0.61778337 0.39006153
0.36562836 -0.60237116 0.38975906
0.38419217 -0.58760881 0.38981083
0.40239772 -0.57559168 0.38961998
0.421579 -0.56017029 0.3895866
0.44170073 -0.54539633 0.38924339
0.46094766 -0.53055179 0.38989052
0.47928056 -0.51741123 0.38950458
0.50505149 -0.50328666 0.38451102
0.52074564 -0.49578634 0.38257021
0.12671062 -0.75497931 0.39068118
0.13806526 -0.74648875 0.39020389
0.15670888 -0.73218238 0.39021176
0.17602667 -0.71711975 0.39049685
0.19679818 -0.70080066 0.39018637
0.21562801 -0.68641698 0.38999769
0.23580277 -0.67415893 0.38986957
0.25193661 -0.65980291 0.3897914
0.27393079 -0.6435287 0.38998908
0.29358411 -0.62767249 0.38991165
0.31216359 -0.61371374 0.38970256
0.32931119 -0.5997721 0.38956791
0.3511616 -0.58473498 0.38954324
0.36758432 -0.57058406 0.38951346
0.38626361 -0.55834514 0.38952246
0.40669259 -0.54292029 0.3899473
0.42406049 -0.52931654 0.38935021
0.444684 -0.51449943 0.38979393
0.46372592 -0.49895239 0.38935995
0.485073 -0.48398575 0.3890557
0.49792877 -0.47390056 0.38988498
0.11067261 -0.7375046 0.39057833
0.12224858 -0.72791713 0.39007482
0.14100057 -0.71426809 0.38982749
0.16000275 -0.69883466 0.39056131
0.18032005 -0.68475616 0.38999915
0.20033276 -0.66868675 0.39013368
0.21756425 -0.65564942 0.38998106
0.23468888 -0.64127201 0.39008325
0.25793841 -0.62641311 0.38987947
0.27879518 -0.61038607 0.38995665
0.29533434 -0.59787869 0.38956434
0.31378216 -0.58433366 0.38965479
0.33368748 -0.56877261 0.38985923
0.3519727 -0.55242789 0.38920054
0.37170464 -0.54026836 0.38962013
0.38920799 -0.52612889 0.38945687
0.4096058 -0.51148248 0.38905856
0.43012404 -0.49647352 0.38965985
0.44823402 -0.48214459 0.38945773
0.46718687 -0.46577531 0.38954258
0.48124859 -0.45555812 0.38962162
0.094660476 -0.72221023 0.39129281
0.10579418 -0.71100295 0.39006457
0.12380432 -0.69658852 0.39010599
0.14424278 -0.68340921 0.3903667
0.16466048 -0.66755557 0.39026386
0.18522193 -0.65297115 0.38998872
0.204413 -0.63777518 0.38998714
0.21936868 -0.6252594 0.38962293
0.24173144 -0.60979772 0.38963592
0.26247424 -0.59532928 0.3901498
0.27853525 -0.58111614 0.38950121
0.29872391 -0.5674088 0.38945541
0.3178122 -0.55057108 0.38979411
0.33671987 -0.5371657 0.38906959
0.35494471 -0.52429074 0.38932115
0.37464595 -0.50886196 0.38938433
0.39327493 -0.49546644 0.38919497
0.41392601 -0.47928065 0.38952547
0.43368712 -0.46608925 0.38904354
0.45212415 -0.44856691 0.38904107
0.4666332 -0.43960249 0.38965359
0.078698739 -0.70465159 0.39124948
0.088794142 -0.69473034 0.39018723
0.10997871 -0.68042076 0.38991794
0.12794517 -0.66614753 0.39042643
0.14841461 -0.65000391 0.3901237
0.16876759 -0.63564789 0.39021373
0.18820119 -0.62189484 0.38992327
0.20548111 -0.60897946 0.39011657
0.22616275 -0.59253585 0.38982573
0.24634428 -0.57695538 0.3901509
0.26383978 -0.56387699 0.38966215
0.28202143 -0.55008894 0.38933396
0.30409762 -0.53391302 0.39002383
0.32294595 -0.51972139 0.38908052
0.34046876 -0.50650823 0.38964245
0.3577854 -0.49131733 0.38908544
0.37734583 -0.47804007 0.38904959
0.39820749 -0.46285123 0.38945791
0.41790745 -0.44785619 0.38915783
0.4374111 -0.43328595 0.38971287
0.4485372 -0.4214896 0.3897081
0.061679065 -0.68695122 0.39103425
0.074133933 -0.67759526 0.38994935
0.093745902 -0.66273111 0.38989922
0.11183798 -0.64828199 0.39036492
0.13220614 -0.63433623 0.38995975
0.15455994 -0.61728162 0.38998625
0.17144069 -0.60311961 0.39016303
0.18796472 -0.59010339 0.38999194
0.20922358 -0.57498276 0.38965303
0.22980648 -0.56045288 0.39008161
0.24676728 -0.54721284 0.38951507
0.26528931 -0.5335148 0.38953105
0.28613821 -0.51622468 0.38993868
0.30599153 -0.50369263 0.38936079
0.32407403 -0.48803806 0.38959455
0.34301099 -0.47316486 0.38950434
0.36231494 -0.46014154 0.38937181
0.38253668 -0.44477183 0.38948143
0.40190959 -0.42953271 0.38910535
0.42141148 -0.41625133 0.38930479
0.43332937 -0.40376738 0.39024302
0.04551582 -0.66859734 0.39094654
0.058598712 -0.66006857 0.39040467
0.077471718 -0.64543241 0.39013547
0.096808091 -0.6310578 0.39051774
0.11741711 -0.61621869 0.38969126
0.13542159 -0.60142696 0.38986021
0.15628639 -0.58641154 0.39000973
0.17402539 -0.57391411 0.38985986
0.19430447 -0.55796093 0.38996327
0.21270417 -0.54328954 0.3896164
0.23212363 -0.52885509 0.38906008
0.24901199 -0.51558912 0.38934061
0.2696721 -0.49810654 0.38963526
0.28903854 -0.48487884 0.38933006
0.30699539 -0.47193784 0.39000612
0.32618293 -0.45578551 0.38964796
0.34530446 -0.44392794 0.38916209
0.3653332 -0.4284862 0.38937977
0.38627678 -0.41210079 0.38935325
0.40567276 -0.39857024 0.38948363
0.41663241 -0.3886376 0.38908219
0.030029297 -0.65007913 0.39020842
0.041857719 -0.6414004 0.39032334
0.061256446 -0.62819886 0.38971034
0.07969898 -0.61387324 0.39042681
0.099827521 -0.59869635 0.38977489
0.11976412 -0.5836975 0.38963592
0.1391957 -0.57016426 0.38993874
0.15801835 -0.55648482 0.39018342
0.178131 -0.54055893 0.38964531
0.1968713 -0.52355218 0.38999751
0.21642864 -0.51275361 0.38955855
0.23425773 -0.49830398 0.38980201
0.25458282 -0.48146382 0.38973624
0.27267247 -0.46879518 0.38899633
0.29185158 -0.45349056 0.38960037
0.31170583 -0.43906036 0.38973635
0.3294521 -0.42553934 0.38914078
0.34811747 -0.41008449 0.38907689
0.37077212 -0.39529407 0.38939604
0.38957676 -0.38007748 0.38915408
0.40154117 -0.37068897 0.38989985
0.014765106 -0.63468325 0.38980573
0.026263349 -0.62391305 0.39015076
0.043873869 -0.61017859 0.38970456
0.063195392 -0.59623605 0.39050889
0.084022567 -0.58067358 0.38971999
0.10370018 -0.56541586 0.3898741
0.12226762 -0.55114859 0.38978741
0.14006305 -0.53729618 0.38991842
0.1616042 -0.5230251 0.38980734
0.18066321 -0.50726068 0.3899633
0.19998482 -0.49313414 0.38967046
0.21594647 -0.48100886 0.38941285
0.23780468 -0.46398282 0.38958997
0.25735953 -0.45177051 0.38984677
0.27583274 -0.4359245 0.38922977
0.29541883 -0.42121616 0.3894091
0.31411493 -0.40848196 0.38934574
0.33296284 -0.39213675 0.38888842
0.35311672 -0.37737787 0.38995677
0.37017518 -0.36433965 0.38887766
0.38378394 -0.35206378 0.38990355
-0.0025826693 -0.61844045 0.39065367
0.010887802 -0.60904586 0.39023831
0.027570426 -0.5933181 0.38953
0.047426112 -0.57987678 0.39022151
0.067754045 -0.56361723 0.38977715
0.087201774 -0.54833335 0.38963088
0.1050039 -0.53485465 0.38993856
0.12441413 -0.52150542 0.38976449
0.14515945 -0.50526142 0.38955346
0.16558161 -0.49004966 0.38973075
0.18491626 -0.47642905 0.38967013
0.20129222 -0.46199429 0.38949808
0.22334313 -0.44676375 0.38955536
0.24115714 -0.4341473 0.38913894
0.2593742 -0.41867116 0.38891816
0.27987313 -0.40360913 0.38916507
0.29934245 -0.39011225 0.38897794
0.31437999 -0.37379003 0.38930663
0.33524084 -0.36091095 0.38923699
0.35363626 -0.34518227 0.38911274
0.36777419 -0.3330611 0.39024684
-0.019374266 -0.60026872 0.39007008
-0.0048582703 -0.59022325 0.39011446
0.013018414 -0.57622868 0.38973096
0.032111682 -0.56326473 0.39033064
0.051568031 -0.54690367 0.38985851
0.072264716 -0.53280056 0.39009473
0.090864338 -0.51818496 0.38967451
0.10951285 -0.50470906 0.38977507
0.12983702 -0.48931992 0.38978136
0.14980716 -0.47335306 0.38995999
0.16956885 -0.45982444 0.38976687
0.18400565 -0.44699258 0.38938352
0.20712018 -0.42975476 0.38931388
0.22609852 -0.41710347 0.38937384
0.24299902 -0.4025293 0.38890129
0.2640129 -0.38648716 0.3894136
0.28140339 -0.37287772 0.38854608
0.29967028 -0.35836673 0.38948074
0.3206141 -0.34413561 0.38928562
0.33953482 -0.32897121 0.38931504
0.35574844 -0.31937596 0.39093593
-0.035394028 -0.58454722 0.39046478
-0.021175593 -0.57202923 0.39000934
-0.0030126274 -0.5590986 0.38995057
0.015054777 -0.54463995 0.38992906
0.037223667 -0.52897489 0.38991639
0.056124501 -0.51506454 0.38982278
0.073455691 -0.50154614 0.38989028
0.09366592 -0.48727679 0.38993725
0.11335906 -0.47176719 0.38961616
0.13290694 -0.45707905 0.38967204
0.15203513 -0.44221124 0.38952264
0.16883919 -0.42854434 0.38937095
0.19162326 -0.41239479 0.3899664
0.2084676 -0.39821935 0.38927454
0.2291826 -0.38576543 0.38933688
0.24760744 -0.37040132 0.3894406
0.26529413 -0.35718751 0.38953549
0.28486019 -0.34299546 0.389301
0.30407846 -0.3279472 0.38900948
0.32288498 -0.31379658 0.3888289
0.3395541 -0.30233184 0.38979945
-0.051852539 -0.56516731 0.38998711
-0.038081855 -0.55545878 0.39008749
-0.019636616 -0.54186153 0.38972345
-0.00011491776 -0.5262292 0.3896189
0.019389279 -0.5119828 0.38960096
0.03967455 -0.49816668 0.38974485
0.058421969 -0.48518488 0.38962623
0.076719202 -0.46967798 0.38966763
0.097429693 -0.45457488 0.38954672
0.1172331 -0.43875599 0.38985807
0.13523807 -0.42426452 0.38972178
0.15179309 -0.41307962 0.38898194
0.1761857 -0.39620367 0.38939843
0.19255896 -0.3812775 0.38973927
0.212439 -0.3698383 0.38942546
0.23045947 -0.35344976 0.38924956
0.25024369 -0.33901921 0.38902387
0.26877582 -0.32508081 0.38918504
0.28788322 -0.30986586 0.38952973
0.30718672 -0.29498169 0.38898233
0.32134062 -0.2856693 0.38943782
-0.068365827 -0.54729736 0.39020288
-0.053306639 -0.53906828 0.38988453
-0.035687417 -0.52580881 0.38989389
-0.016816527 -0.50995553 0.38987249
0.0038742423 -0.49403536 0.38990465
0.025167525 -0.47975126 0.38994545
0.042353146 -0.46795577 0.38975716
0.061355866 -0.45254037 0.38972899
0.080067284 -0.43712771 0.38952047
0.10062805 -0.42169756 0.38963991
0.11827284 -0.40638366 0.389584
0.13607785 -0.3940939 0.38942316
0.15849091 -0.37730488 0.38987586
0.17538977 -0.36328846 0.38988546
0.19499719 -0.35352254 0.38936681
0.21534556 -0.33532783 0.38956815
0.23352149 -0.31893814 0.38901272
0.25071248 -0.30634719 0.38924992
0.27087542 -0.29222926 0.38911214
0.29120922 -0.27738714 0.38919806
0.30164981 -0.26359007 0.38922939
-0.081103057 -0.53226113 0.39004886
-0.069306225 -0.5204978 0.38976809
-0.050807133 -0.50818467 0.38986576
-0.032259896 -0.49321032 0.38965324
-0.011857778 -0.47660792 0.39026216
0.0084944218 -0.46193975 0.38967693
0.025508344 -0.44864154 0.38950098
0.043818086 -0.43541461 0.38983333
0.064254172 -0.41859251 0.38931975
0.084343396 -0.40291268 0.38922232
0.10285442 -0.38948476 0.38992345
0.12025422 -0.37873387 0.38938737
0.14163993 -0.36090896 0.38963947
0.16140471 -0.34719995 0.38926974
0.17862603 -0.33391851 0.38943428
0.19948366 -0.31878689 0.3890931
0.21820895 -0.3029151 0.38922119
0.23599619 -0.28895739 0.38887632
0.25631547 -0.27535254 0.38906792
0.27533293 -0.26047194 0.38929197
0.28919071 -0.25107425 0.38771403
-0.09745504 -0.5145691 0.38998908
-0.083912537 -0.50333017 0.39019665
-0.066608727 -0.48935726 0.38981652
-0.047589049 -0.47474593 0.3896437
-0.027796194 -0.46010673 0.38956952
-0.0073449165 -0.44531527 0.38963607
0.0093435496 -0.43124157 0.38958025
0.027751036 -0.41744697 0.38908899
0.048792675 -0.40224847 0.38957974
0.069155186 -0.38742524 0.38999948
0.088393703 -0.37411857 0.38982993
0.10413356 -0.36210001 0.38915065
0.12709838 -0.3441833 0.38951936
0.14606746 -0.32987481 0.39016971
0.16271067 -0.31531915 0.38939691
0.18347624 -0.30208611 0.3896943
0.20417166 -0.28713644 0.38943419
0.22154197 -0.27267671 0.38912994
0.23972178 -0.25735778 0.38937601
0.26031137 -0.24427527 0.38905722
0.2759971 -0.23707466 0.38866594
-0.11323768 -0.49745867 0.39007249
-0.1018042 -0.48567182 0.3898336
-0.083973974 -0.47260952 0.38977346
-0.063396215 -0.45677808 0.3895213
-0.042238951 -0.44220573 0.38976815
-0.023280621 -0.42702141 0.3895112
-0.0052551478 -0.41492164 0.39000386
0.012744606 -0.40069136 0.39015818
0.032794029 -0.38577753 0.38951087
0.053058527 -0.37054464 0.38939402
0.070926398 -0.3561002 0.38956597
0.086772397 -0.34359968 0.38917434
0.10864467 -0.32649967 0.38937172
0.12960026 -0.31195655 0.38925913
0.14637035 -0.2974332 0.38917413
0.16556922 -0.28439301 0.38953
0.18678661 -0.2695868 0.38886565
0.20539644 -0.25435936 0.38951162
0.2237438 -0.23890677 0.388706
0.24213618 -0.22809124 0.38938016
0.25667849 -0.21738011 0.38935891
-0.15245065 -0.48784098 0.37981081
-0.1381323 -0.48174477 0.38165402
-0.11764064 -0.4690012 0.38249007
-0.10278973 -0.4546499 0.38679227
-0.080150321 -0.44043332 0.38958761
-0.060347408 -0.42566422 0.38988429
-0.040513963 -0.40937039 0.3897855
-0.021707326 -0.39652789 0.38990715
-0.0042059422 -0.38254306 0.39034754
0.016688548 -0.36773613 0.38925928
0.035627574 -0.35173452 0.38980156
0.054935656 -0.33722895 0.3895357
0.07058575 -0.3249658 0.38924617
0.092861593 -0.31021574 0.38981533
0.11270284 -0.2948918 0.38998842
0.1286447 -0.28093451 0.39008427
0.14989282 -0.26667851 0.38966161
0.17127882 -0.25070584 0.38978377
0.1894044 -0.23660098 0.38995239
0.20932434 -0.22109434 0.38957271
0.22766481 -0.20624353 0.38259295
0.24380927 -0.19378772 0.38147998
0.25308716 -0.18012106 0.3834388
-0.16049621 -0.47966027 0.38136148
-0.15351692 -0.46466458 0.38111424
-0.13790098 -0.44905794 0.38176847
-0.11665431 -0.44338873 0.38352174
-0.09066996 -0.4255147 0.38970435
-0.071797967 -0.41193733 0.39001417
-0.051873684 -0.39531848 0.39003938
-0.036061823 -0.38264555 0.39057037
-0.015457392 -0.36916327 0.39014372
0.0051258951 -0.35400257 0.38975647
0.02230905 -0.34063059 0.39103591
0.043192126 -0.3247481 0.39047283
0.059421621 -0.31070143 0.38943928
0.080388494 -0.29629219 0.38984853
0.099277258 -0.28198031 0.39011043
0.11914736 -0.26740083 0.39012587
0.13844311 -0.25203687 0.38988441
0.15653095 -0.23886788 0.38925004
0.17401904 -0.2242125 0.3897889
0.19700786 -0.20525254 0.38582128
0.20922336 -0.18847895 0.38105074
0.22801778 -0.1766492 0.38247007
0.2448834 -0.17323431 0.38107672
-0.155772 -0.4526422 0.38470533
-0.14607516 -0.44536462 0.38105571
0.2049768 -0.18007421 0.3821615
0.21547803 -0.17246766 0.38052803
0.1511046 -0.81219274 0.40182608
0.16689131 -0.80780995 0.40337351
0.18459073 -0.79438967 0.40397057
0.19709772 -0.77766645 0.40410554
0.21919698 -0.75968891 0.40589148
0.2373053 -0.746162 0.40553671
0.25803584 -0.73043674 0.4055711
0.27547851 -0.71733469 0.40449905
0.29394144 -0.70328331 0.40556806
0.31468782 -0.6876533 0.40512553
0.33410355 -0.67299253 0.40399066
0.35316965 -0.65846282 0.40503374
0.37062228 -0.64548266 0.40482312
0.38990426 -0.63086766 0.4054068
0.41120124 -0.61476564 0.40577045
0.42929956 -0.60117137 0.40465426
0.44806802 -0.58690917 0.4056583
0.46924129 -0.57096541 0.4042477
0.48611206 -0.55807549 0.40605435
0.50990576 -0.54190534 0.40608174
0.53114629 -0.53348404 0.4039664
0.54748368 -0.52060699 0.40411827
0.5538218 -0.50713795 0.40503451
0.14337268 -0.80409068 0.40628698
0.15034997 -0.79558563 0.40373778
0.17866825 -0.77813679 0.40222788
0.19350162 -0.768852 0.40349028
0.21265656 -0.75493914 0.40443394
0.23168236 -0.73979795 0.40307832
0.25071186 -0.72477496 0.40341955
0.27058813 -0.71089846 0.40290788
0.28901443 -0.69611013 0.40367305
0.30855462 -0.68256879 0.40392759
0.32756472 -0.66683984 0.40314716
0.3464238 -0.65257955 0.40334389
0.36573732 -0.63875401 0.40343139
0.38538027 -0.62399316 0.40376219
0.40328538 -0.608989 0.40367106
0.42304018 -0.5948227 0.40336758
0.44196206 -0.58106053 0.40367886
0.46101066 -0.565516 0.40328825
0.48138884 -0.55175376 0.4043324
0.49926284 -0.53743958 0.40315163
0.51337898 -0.52447969 0.40258634
0.5373019 -0.50305998 0.4033936
0.54693604 -0.49811846 0.40522936
0.14147584 -0.77489924 0.40317693
0.15403196 -0.76419866 0.40238068
0.17475215 -0.74748975 0.39986822
0.19369245 -0.73268449 0.3993147
0.21264429 -0.71898592 0.40031102
0.23257232 -0.70430386 0.3993108
0.25117734 -0.68980062 0.39970556
0.27056438 -0.67615712 0.40039182
0.28942263 -0.66226774 0.39974439
0.30879742 -0.64670813 0.3989782
0.32801563 -0.63150269 0.40088031
0.34589607 -0.61858243 0.39945063
0.36524174 -0.60367244 0.39972883
0.38489738 -0.5897963 0.40007952
0.40413585 -0.57415539 0.3999213
0.42360234 -0.56032419 0.39984393
0.44317141 -0.54532683 0.40000618
0.46250468 -0.53095299 0.4003157
0.48009115 -0.51616424 0.3999497
0.50238764 -0.50131744 0.40098479
0.5150044 -0.49193388 0.40520546
0.12399851 -0.75653744 0.40355411
0.13754322 -0.74711192 0.40269533
0.15854397 -0.73062491 0.40041274
0.17885761 -0.71529746 0.39911777
0.19690351 -0.70102209 0.40026757
0.21665099 -0.68695867 0.39941797
0.23446074 -0.67260599 0.39953458
0.25453126 -0.65837032 0.40034911
0.27265313 -0.64463937 0.39961594
0.29241306 -0.62915123 0.39930603
0.31140816 -0.61461794 0.4005661
0.3294141 -0.60063088 0.39935189
0.34987837 -0.58633649 0.4000929
0.36928958 -0.57224256 0.40060639
0.38865596 -0.55644643 0.39970288
0.40694436 -0.54228753 0.40035874
0.42652971 -0.52791643 0.39990535
0.44621167 -0.51418483 0.40000317
0.46454713 -0.49913251 0.40038872
0.48538709 -0.48340592 0.40261751
0.49913847 -0.47333351 0.40479833
0.10784611 -0.73932368 0.40379658
0.12188755 -0.72887301 0.401916
0.1428289 -0.71277344 0.400518
0.16245264 -0.69899255 0.39964977
0.18079174 -0.68488061 0.4000265
0.20055744 -0.67006707 0.40027988
0.22012071 -0.65485799 0.40022993
0.23918685 -0.64022052 0.40050134
0.257815 -0.62725449 0.40016288
0.27651224 -0.61243629 0.39978951
0.29569525 -0.59785241 0.4008528
0.31446445 -0.58415526 0.40016729
0.33378172 -0.56878042 0.40082493
0.35269916 -0.55499315 0.40043798
0.37182379 -0.5398221 0.40064594
0.39094344 -0.52483147 0.40003529
0.41047508 -0.51111895 0.40047407
0.43002138 -0.49690062 0.40083662
0.44909889 -0.48156667 0.4004471
0.47063848 -0.46640757 0.40232888
0.48371544 -0.45604774 0.40480909
0.09153685 -0.72238135 0.40383238
0.10587947 -0.71156037 0.40253061
0.1256188 -0.69446713 0.39982125
0.14573655 -0.68044305 0.39959231
0.16435872 -0.666991 0.40003899
0.18366393 -0.65247244 0.40047431
0.20311441 -0.63719755 0.39997068
0.22333026 -0.62293643 0.39975294
0.24048699 -0.60904169 0.39990348
0.26074976 -0.59434456 0.39926252
0.27937219 -0.57991314 0.40102082
0.29634571 -0.56650424 0.39915779
0.31716746 -0.5518657 0.39966211
0.33635291 -0.53741693 0.40040091
0.35566217 -0.52241987 0.39958993
0.37406451 -0.50754297 0.39956889
0.39399216 -0.49380505 0.40005782
0.41308156 -0.47834975 0.40053535
0.43294877 -0.46427429 0.40041468
0.45370492 -0.44813839 0.40266433
0.46724823 -0.43883306 0.40392908
0.076621056 -0.70551002 0.40307435
0.090371937 -0.69392288 0.40186107
0.11203463 -0.6777693 0.40054181
0.12904194 -0.6640774 0.40009734
0.1488671 -0.65059686 0.40043363
0.16755861 -0.63561749 0.40053314
0.18707702 -0.62058216 0.40012607
0.20741336 -0.60540658 0.40001413
0.22573324 -0.59241098 0.4004401
0.24489044 -0.57778847 0.39987913
0.26350075 -0.56218457 0.40027073
0.28119081 -0.54879028 0.39997712
0.30174339 -0.53373116 0.40067205
0.32083303 -0.52039498 0.4003984
0.33986053 -0.50498825 0.40017635
0.35890636 -0.49172023 0.4008657
0.37818283 -0.47646484 0.40058061
0.39770824 -0.46171272 0.40062255
0.4168742 -0.44782782 0.40095964
0.43818888 -0.43111888 0.40272647
0.4521094 -0.42205173 0.40392601
0.060233876 -0.68832833 0.40350345
0.074573457 -0.67694807 0.40210831
0.094626099 -0.6617347 0.39977753
0.11256935 -0.64691657 0.39987954
0.13398203 -0.63258791 0.40009189
0.15202379 -0.61852515 0.39984992
0.17106822 -0.60404348 0.39949709
0.19124839 -0.58896458 0.40080333
0.20968989 -0.57547653 0.39998105
0.22809282 -0.56062442 0.40038124
0.24817324 -0.54586768 0.40076488
0.26613206 -0.53236896 0.39934751
0.28568524 -0.51724809 0.39991912
0.30491513 -0.50275195 0.40060249
0.32321876 -0.48790351 0.40028995
0.3428404 -0.47440672 0.40008798
0.36197835 -0.45935476 0.4004648
0.38178885 -0.4454079 0.40011039
0.4008283 -0.43056995 0.40058061
0.4219161 -0.41463763 0.40272847
0.43524477 -0.404998 0.40407389
0.04380694 -0.67038816 0.40348226
0.057768859 -0.66019762 0.40192863
0.078216262 -0.64387512 0.40069082
0.096415259 -0.62925589 0.40007949
0.11590798 -0.61587006 0.40077394
0.13480327 -0.6010406 0.40031838
0.1539112 -0.58639866 0.4001075
0.17490056 -0.57112741 0.4000212
0.19293724 -0.55724955 0.40021774
0.21246758 -0.54246855 0.4001933
0.23237136 -0.52854753 0.400525
0.25016123 -0.51572442 0.3997851
0.26998341 -0.49976891 0.40012324
0.28835741 -0.48619479 0.40053993
0.30780542 -0.47137004 0.39988011
0.32619053 -0.4566142 0.40066814
0.345487 -0.44143885 0.40040767
0.36634877 -0.42723739 0.40045196
0.38466689 -0.41196111 0.40079308
0.40609571 -0.39708984 0.40280929
0.41952702 -0.38748038 0.40409359
0.027664296 -0.65315455 0.40311718
0.041493908 -0.64279836 0.4006843
0.063603967 -0.62770027 0.39969677
0.080536485 -0.61387467 0.39978713
0.10148641 -0.59775674 0.39973196
0.12048803 -0.58410215 0.40017843
0.13904171 -0.56990838 0.40041989
0.15824981 -0.55488747 0.40055349
0.17596632 -0.54048324 0.40050557
0.19673935 -0.52592969 0.40000895
0.21593957 -0.51120645 0.40084597
0.23332871 -0.49815866 0.3999171
0.25327516 -0.48264053 0.40034196
0.27258325 -0.46852827 0.40056074
0.29236045 -0.4547984 0.40075043
0.31142157 -0.43938023 0.40016401
0.33048818 -0.42461047 0.40075928
0.35031959 -0.40981105 0.4009259
0.36929193 -0.39568654 0.40085644
0.38929558 -0.38083276 0.40192854
0.40283522 -0.36985379 0.4040491
0.012108788 -0.63623482 0.40363038
0.02654916 -0.6252737 0.40048808
0.047179878 -0.61075932 0.39975914
0.064667232 -0.59603989 0.39985105
0.084490389 -0.58062011 0.4000704
0.10354985 -0.56699038 0.39985809
0.12330396 -0.55229616 0.39992771
0.1421459 -0.53827882 0.4003793
0.16006041 -0.52375662 0.40034682
0.18116167 -0.50914711 0.40048459
0.20019512 -0.49352396 0.40055123
0.2176014 -0.48040649 0.399672
0.2380887 -0.4652431 0.40017211
0.25642437 -0.45146358 0.40070304
0.2758818 -0.43695694 0.40030402
0.29466012 -0.42218924 0.4001255
0.31362727 -0.4083485 0.40024886
0.33376059 -0.39219546 0.40028208
0.3526614 -0.378766 0.40080225
0.37289515 -0.36355996 0.40189111
0.3872675 -0.35261521 0.40347627
-0.0037086308 -0.61925542 0.40429908
0.010876328 -0.60906869 0.40109509
0.029834151 -0.59391105 0.40061197
0.048088312 -0.57970756 0.40090826
0.070289657 -0.56236911 0.39998925
0.088059291 -0.54901743 0.40076545
0.10704898 -0.53534937 0.40070587
0.12624708 -0.52028555 0.40052691
0.14357691 -0.5065406 0.40037289
0.16485378 -0.49167758 0.40010285
0.18348566 -0.47689468 0.40073186
0.20124823 -0.46374965 0.39999619
0.22255865 -0.44757307 0.40046504
0.24060711 -0.4342663 0.40034193
0.25888321 -0.41930526 0.40033564
0.27899155 -0.40498421 0.40005702
0.2978653 -0.39148068 0.40143713
0.31740981 -0.37565917 0.40096733
0.33674687 -0.36145225 0.40097523
0.35708117 -0.34619015 0.40254828
0.37144443 -0.33574995 0.40467733
-0.020369902 -0.60164404 0.4042066
-0.0055977702 -0.59109157 0.40102339
0.015356451 -0.57581639 0.40009052
0.032902882 -0.56221771 0.40010014
0.053655952 -0.54652846 0.39965853
0.071655028 -0.53138429 0.40033054
0.090576738 -0.51795805 0.39965984
0.10954559 -0.50402248 0.40009266
0.12771724 -0.49022299 0.40012968
0.14803383 -0.47434676 0.39995307
0.16805702 -0.45950776 0.40110564
0.18562378 -0.44668138 0.40008274
0.20609368 -0.43051222 0.40036649
0.22478326 -0.41648358 0.40040118
0.24343327 -0.40234897 0.40014654
0.26219857 -0.38882539 0.40032238
0.28042966 -0.37503603 0.40014276
0.3018744 -0.35902488 0.40014595
0.32059896 -0.34409386 0.40051433
0.34055534 -0.32954884 0.40172717
0.3548604 -0.31806958 0.40414765
-0.03596282 -0.58379841 0.40366629
-0.022258759 -0.5727306 0.40128848
-0.0024389327 -0.5584628 0.40028903
0.015215069 -0.54395103 0.40015274
0.036620758 -0.52794743 0.39992505
0.054724634 -0.51406115 0.40061352
0.07327842 -0.49980709 0.40031099
0.092840701 -0.48684075 0.4001008
0.11111778 -0.47206569 0.4004921
0.13190463 -0.45624244 0.39963815
0.15161093 -0.44215393 0.40086907
0.1689907 -0.4287672 0.4000465
0.18956617 -0.41234487 0.40116072
0.20872931 -0.39932933 0.40076333
0.2258707 -0.38409683 0.40072054
0.24616604 -0.36958107 0.40053856
0.26534677 -0.35671288 0.40019652
0.28445098 -0.34072062 0.40096441
0.30361658 -0.32582352 0.40082166
0.32313725 -0.31123784 0.40145773
0.33788145 -0.3001653 0.4051663
-0.052279875 -0.56689274 0.40384629
-0.039177537 -0.55639625 0.40180081
-0.016937122 -0.54136509 0.40110803
0.00023749471 -0.52783382 0.40050042
0.019637778 -0.5114392 0.400686
0.039547473 -0.4979251 0.40072733
0.058251023 -0.48372322 0.40011951
0.078110114 -0.46988559 0.40037018
0.095559299 -0.45458782 0.40049759
0.11598708 -0.43997055 0.39979282
0.13574061 -0.42457423 0.40061265
0.15260151 -0.41089818 0.39940289
0.17357011 -0.39572033 0.40103811
0.19277324 -0.38201922 0.40043515
0.21082337 -0.36786443 0.40014929
0.22943486 -0.35383797 0.40067992
0.24994113 -0.33979067 0.40030003
0.26900935 -0.32449177 0.40015936
0.28753555 -0.30963928 0.40041113
0.30886179 -0.29426208 0.40208727
0.32179007 -0.28350931 0.40497693
-0.068839058 -0.54914284 0.40408146
-0.054047585 -0.53932869 0.40191743
-0.034013823 -0.52476943 0.40020892
-0.0152338 -0.51015371 0.39968801
0.0040559024 -0.49389109 0.40033391
0.023058034 -0.48062891 0.40075511
0.042352661 -0.46650997 0.39953145
0.061627097 -0.45209122 0.39999026
0.079970136 -0.43734491 0.40081361
0.099891335 -0.42247552 0.40067875
0.12058014 -0.40846863 0.40083212
0.13749036 -0.39453241 0.39969069
0.15702476 -0.378851 0.40083474
0.17622846 -0.36615622 0.40035507
0.19549829 -0.35124654 0.40017664
0.21444839 -0.3361398 0.40029305
0.23353264 -0.32237375 0.39960727
0.25277287 -0.30744171 0.40071282
0.27238226 -0.29261136 0.40016973
0.29215592 -0.27788317 0.40169939
0.3063176 -0.26673451 0.40464687
-0.085374102 -0.53290927 0.40323347
-0.071056813 -0.52270353 0.40111697
-0.04949367 -0.50668997 0.40083063
-0.030785605 -0.49261454 0.39998356
-0.012550279 -0.4772734 0.40070343
0.0073044598 -0.46318781 0.40061551
0.027280495 -0.44915539 0.40042961
0.046162523 -0.43459424 0.40017718
0.063996613 -0.4208436 0.40087637
0.084073544 -0.40578923 0.40047821
0.10450552 -0.39141455 0.40104488
0.12134101 -0.37760031 0.39967099
0.14102176 -0.36230981 0.40021503
0.15937582 -0.34798288 0.40029299
0.18009219 -0.33325306 0.40050957
0.19849318 -0.31813696 0.40118054
0.2177062 -0.3045674 0.4006128
0.23646155 -0.2903896 0.40059158
0.25557646 -0.27535161 0.40063623
0.27732295 -0.26003036 0.40136942
0.28981808 -0.24941832 0.4047772
-0.099775687 -0.51614422 0.40344352
-0.087593406 -0.50523436 0.40183306
-0.065971255 -0.48938814 0.40094823
-0.047253028 -0.47582933 0.40041447
-0.027541399 -0.46059829 0.40001473
-0.0085836649 -0.44621494 0.4008913
0.010824397 -0.43239379 0.39972988
0.02929318 -0.41722286 0.40066046
0.048303902 -0.40322793 0.40041906
0.06825155 -0.38848266 0.40024585
0.088507652 -0.37371743 0.40092969
0.10521212 -0.35942444 0.4004429
0.12506084 -0.34477085 0.40115803
0.14288113 -0.33089495 0.40055493
0.16406742 -0.31621778 0.39979854
0.18272501 -0.30117905 0.4002625
0.20208451 -0.28747213 0.40015075
0.2214752 -0.27342403 0.40053791
0.23996454 -0.2583555 0.40014288
0.26086873 -0.24244639 0.40224317
0.2738362 -0.23253594 0.40487897
-0.11707786 -0.49788758 0.40327856
-0.103338 -0.48782289 0.40136793
-0.081545621 -0.47193187 0.3999173
-0.063150913 -0.45825389 0.40087143
-0.044274732 -0.44313693 0.4005864
-0.025200769 -0.42835793 0.40042502
-0.0054944009 -0.41488388 0.39983058
0.013362437 -0.39972669 0.39988577
0.03219448 -0.38639995 0.40056384
0.052299693 -0.37117499 0.40010014
0.071197078 -0.35513753 0.40030918
0.089087017 -0.34205145 0.39956096
0.10909077 -0.32773173 0.40067396
0.12758589 -0.31396911 0.40054819
0.14792855 -0.29972035 0.40038946
0.16581482 -0.28453201 0.40054697
0.18535905 -0.2698693 0.40019047
0.20470938 -0.25571343 0.40062377
0.22339799 -0.24201407 0.40010181
0.24494451 -0.2251371 0.40231681
0.25748879 -0.21522154 0.40468919
-0.15186521 -0.48874488 0.40457529
-0.13760033 -0.48201597 0.40328926
-0.11716557 -0.4699235 0.40159813
-0.098032013 -0.45451885 0.40044549
-0.079601839 -0.44055438 0.40110573
-0.060268551 -0.42564493 0.40053508
-0.040650368 -0.41162872 0.40141329
-0.021516785 -0.39775547 0.40046453
-0.0024149269 -0.38224143 0.40061587
0.015753672 -0.36868232 0.40074471
0.036190771 -0.35426801 0.40018991
0.055013828 -0.33896536 0.40064102
0.073357224 -0.32519117 0.40008613
0.093697429 -0.31001955 0.40114915
0.1107318 -0.29570508 0.40084836
0.13151225 -0.28155336 0.40065199
0.1506937 -0.26770878 0.40099123
0.16951576 -0.25227401 0.4006328
0.18896937 -0.23793067 0.40005443
0.20747539 -0.22408634 0.40025747
0.22851808 -0.21051574 0.40127519
0.24469456 -0.19439828 0.40331757
0.25042018 -0.17905846 0.40077844
-0.16187289 -0.47689325 0.40188074
-0.15408322 -0.46501851 0.40326729
-0.13755333 -0.44857442 0.4042196
-0.11325148 -0.44036305 0.40381587
-0.09285745 -0.42560753 0.40413791
-0.073345512 -0.41147071 0.40375459
-0.054837734 -0.39703226 0.4038651
-0.036277026 -0.38295358 0.40369636
-0.016636491 -0.36796176 0.40362406
0.0020166636 -0.35396767 0.40419811
0.022345081 -0.33907154 0.40414187
0.041757181 -0.3245244 0.40424255
0.06036333 -0.31094426 0.40440074
0.079188138 -0.29563096 0.40467867
0.098118067 -0.2811504 0.40407833
0.11810683 -0.26619369 0.40405032
0.13683891 -0.25230807 0.40483132
0.15596017 -0.23835957 0.40417209
0.17528036 -0.22322768 0.4042646
0.19379902 -0.20882834 0.40418449
0.20791614 -0.18876931 0.40393314
0.22897947 -0.17640401 0.40367013
0.24596134 -0.17472276 0.40033767
-0.15680957 -0.45335627 0.40224814
-0.14501926 -0.44497275 0.40341052
0.20531376 -0.17960149 0.40442428
0.21550223 -0.17276761 0.40608123
0.15026639 -0.81225032 0.42872146
0.16702963 -0.80780506 0.42605561
0.18432677 -0.79480809 0.42577791
0.19871956 -0.77598619 0.42618719
0.21865475 -0.76012206 0.42646718
0.23719984 -0.74629235 0.42564523
0.25787666 -0.73067617 0.42629772
0.27650648 -0.71673524 0.42489138
0.29396492 -0.70344782 0.42664155
0.31413019 -0.68818218 0.42613956
0.3349275 -0.67251807 0.42497405
0.35245925 -0.65907413 0.42663413
0.37021616 -0.6458708 0.42497438
0.39097038 -0.63016069 0.42613983
0.41117612 -0.61493921 0.42664164
0.42923093 -0.60138232 0.42545104
0.44800949 -0.58710587 0.42564625
0.46835026 -0.571769 0.42588767
0.48627356 -0.55803788 0.426467
0.50727522 -0.54325211 0.42554745
0.53094602 -0.53387856 0.42677945
0.54742074 -0.5201509 0.42538509
0.55393362 -0.50733113 0.43162999
0.14375284 -0.8053019 0.4255757
0.150113 -0.79523206 0.42647263
0.18035214 -0.78272116 0.42431581
0.19720273 -0.77247721 0.42648408
0.21663128 -0.75770092 0.42624265
0.23576529 -0.74326748 0.42680353
0.25463635 -0.72902089 0.42576209
0.27269614 -0.71515262 0.42728102
0.29273644 -0.70007491 0.42628109
0.31250831 -0.68526125 0.42685166
0.33173448 -0.67078364 0.42635792
0.35044017 -0.65649217 0.42565563
0.36921442 -0.64241803 0.4262532
0.38844338 -0.62797248 0.42692855
0.40792 -0.61307836 0.42618385
0.42789349 -0.59797359 0.42717129
0.44662595 -0.58403504 0.42575994
0.46531886 -0.56991708 0.42679018
0.48409793 -0.55575609 0.42635733
0.50367427 -0.5410068 0.42671949
0.51788354 -0.52832007 0.42845431
0.53771079 -0.50308716 0.42665109
0.54860067 -0.49953309 0.42616472
0.14095621 -0.77466661 0.42538917
0.14837876 -0.76729679 0.4288533
0.50782073 -0.49796075 0.42468581
0.51622117 -0.49159241 0.42621973
0.12421659 -0.75659931 0.42581567
0.13267672 -0.75051188 0.42759508
0.49006277 -0.47923625 0.42762876
0.49876639 -0.47319633 0.42613006
0.10756859 -0.73839724 0.42608553
0.1164404 -0.73344141 0.42958626
0.47429144 -0.46254832 0.42636117
0.48220989 -0.4554373 0.4256584
0.092116997 -0.72185236 0.42525575
0.098945662 -0.71507955 0.42702216
0.45896927 -0.44521129 0.42668709
0.46654606 -0.43861222 0.42558682
0.076408029 -0.70586097 0.42513701
0.084027231 -0.69819766 0.42559433
0.44217917 -0.42716652 0.42585528
0.45149711 -0.42225313 0.42581165
0.060418114 -0.68755716 0.42501229
0.068142816 -0.68230057 0.4263379
0.42704469 -0.41144025 0.42702201
0.43531755 -0.40535605 0.42554176
0.042970449 -0.6699512 0.42559758
0.052297086 -0.66446447 0.42560554
0.41052896 -0.39293945 0.42733631
0.41914633 -0.38738579 0.42571759
0.026891194 -0.65250802 0.42630288
0.036043391 -0.6475541 0.4260512
0.39426687 -0.37598503 0.42754605
0.40276808 -0.36928135 0.42571732
0.011461332 -0.63656127 0.42607963
0.01907298 -0.62939286 0.42549309
0.37930763 -0.36014178 0.42691457
0.38621208 -0.35216483 0.42599136
-0.0040706396 -0.61906356 0.42617303
0.0034384727 -0.61216646 0.42733574
0.36291635 -0.34219995 0.42624888
0.37089324 -0.33632183 0.42568481
-0.020953879 -0.6012606 0.42596969
-0.012479901 -0.59551549 0.42720303
0.34502405 -0.32359114 0.42558011
0.35412556 -0.31791762 0.42583704
-0.036029339 -0.58457732 0.4262695
-0.028772637 -0.57796544 0.42881116
0.33024201 -0.30732381 0.42586696
0.33807397 -0.30141786 0.42623362
-0.052849203 -0.56692368 0.42603403
-0.04452762 -0.56107599 0.42681223
0.31342578 -0.2902458 0.42581022
0.32120699 -0.28370053 0.42670634
-0.069663927 -0.54800332 0.42646518
-0.059313029 -0.54465199 0.42812699
0.29757437 -0.27267173 0.42674765
0.30497813 -0.26597452 0.42663357
-0.085074157 -0.53227723 0.42608392
-0.076573417 -0.52647257 0.42648852
0.2813915 -0.25553307 0.42588708
0.29047695 -0.25003958 0.42637625
-0.099846333 -0.51606691 0.42618778
-0.094464153 -0.50783539 0.42613146
0.26530737 -0.23818396 0.42684042
0.27430609 -0.23329976 0.42609698
-0.11645895 -0.49812889 0.42564484
-0.10942988 -0.49148637 0.42584836
0.24946685 -0.22055459 0.4274326
0.25758404 -0.21532893 0.42635545
-0.15299338 -0.48750088 0.42724508
-0.13737896 -0.48254436 0.42614949
-0.1231074 -0.47836202 0.42588016
-0.011400342 -0.3767519 0.43777275
0.034666166 -0.34411997 0.43758282
0.081718966 -0.31025159 0.43752491
0.12717353 -0.27337915 0.437915
0.17915252 -0.2355397 0.43789291
0.19524945 -0.2218416 0.43773156
0.23785794 -0.2081781 0.42691892
0.24337211 -0.19397169 0.42659241
0.25364915 -0.18228318 0.42297512
-0.1616998 -0.47852275 0.43143263
-0.15380928 -0.46450558 0.42546511
-0.13773996 -0.44888851 0.42606294
-0.11331782 -0.43918672 0.42671561
-0.09368962 -0.42510563 0.42590156
-0.074840873 -0.41087845 0.42650682
-0.055228725 -0.39613205 0.42568037
-0.036763817 -0.38198304 0.42706984
-0.016771644 -0.36699185 0.4257341
0.0023094416 -0.35274163 0.42678112
0.020423844 -0.33878529 0.42589191
0.040033996 -0.32400841 0.42692566
0.059530079 -0.30927128 0.42599544
0.078725725 -0.29518482 0.4269903
0.097865559 -0.28053176 0.42581332
0.11749871 -0.26559445 0.42707404
0.13598183 -0.25170594 0.42595395
0.15509182 -0.23723516 0.42650503
0.17406878 -0.22294444 0.42614341
0.19320472 -0.20780686 0.42601383
0.20809342 -0.18758732 0.42667019
0.22847527 -0.17697558 0.42586899
0.24625574 -0.17462908 0.42949563
-0.15761307 -0.45370871 0.42828313
-0.14628932 -0.44543836 0.42452967
0.20665845 -0.1781242 0.42650065
0.21546414 -0.17243241 0.42714769
0.15153697 -0.81217223 0.44910511
0.16687295 -0.80823284 0.44859213
0.18405972 -0.79453093 0.44860414
0.19778052 -0.77797222 0.44791505
0.21805334 -0.76056969 0.44769767
0.23593211 -0.74719429 0.44622207
0.25539696 -0.73259175 0.44659132
0.27504975 -0.71773231 0.44537783
0.29460645 -0.70299315 0.44641277
0.31545877 -0.68725371 0.44667929
0.33588764 -0.67178965 0.4453274
0.35193342 -0.65960491 0.44695681
0.36989588 -0.64604223 0.44548929
0.38982379 -0.63107049 0.44756201
0.40972605 -0.61601174 0.44671097
0.42938548 -0.60117686 0.4457269
0.44858027 -0.58677292 0.44562295
0.46813461 -0.57195926 0.44650298
0.48735881 -0.55732429 0.44670573
0.51079738 -0.54156035 0.44698459
0.53047019 -0.5338484 0.44881538
0.54734236 -0.52028245 0.44795474
0.55499852 -0.50590968 0.45031551
0.14232408 -0.80378449 0.45119923
0.15032205 -0.79569006 0.44987059
0.1760703 -0.7788564 0.45186892
0.19291006 -0.76762897 0.45004186
0.21162784 -0.75207973 0.45018384
0.23065355 -0.7386024 0.44952145
0.25049397 -0.72357404 0.44965383
0.26917425 -0.7089144 0.44954413
0.28780836 -0.69502276 0.44942382
0.30715281 -0.68045962 0.45018977
0.32664073 -0.66663885 0.44912469
0.34583569 -0.65148467 0.45034313
0.36451149 -0.6376549 0.44917446
0.38411021 -0.62344342 0.44966617
0.40318096 -0.60762787 0.44987375
0.42193624 -0.5936932 0.45019278
0.44138992 -0.58001411 0.44946459
0.4605504 -0.56515479 0.44977421
0.47995239 -0.55109257 0.45031771
0.49956015 -0.53606117 0.4496614
0.51525652 -0.52630585 0.45088795
0.53616297 -0.50381863 0.44976619
0.54815257 -0.49907935 0.45032382
0.1419709 -0.7771492 0.44729027
0.15185151 -0.76521993 0.44973981
0.5030148 -0.50016111 0.45164305
0.51553982 -0.4918837 0.44746765
0.12355042 -0.7572915 0.44567534
0.13575298 -0.7478683 0.45006201
0.48679537 -0.48303425 0.45133194
0.4987818 -0.47372815 0.44742358
0.10762046 -0.74028218 0.44454154
0.11969392 -0.73090106 0.44981787
0.47072956 -0.46531963 0.45119527
0.48168561 -0.45539942 0.44704649
0.09189792 -0.72256398 0.4453612
0.10420096 -0.71344894 0.44964486
0.45448357 -0.44817248 0.4505493
0.46667036 -0.43868512 0.44689524
0.07619226 -0.70513028 0.44494721
0.087844178 -0.69666493 0.4490172
0.43873924 -0.43095499 0.45088199
0.45240512 -0.42304552 0.44690719
0.059935674 -0.6879369 0.44462147
0.072284192 -0.67931229 0.4494586
0.4242405 -0.41391188 0.45085543
0.43509209 -0.40521875 0.44693711
0.04442127 -0.67023081 0.44547743
0.055468708 -0.66160238 0.44942045
0.40665394 -0.39677787 0.45094183
0.41825369 -0.38709101 0.44749302
0.027467817 -0.65278172 0.44553566
0.03981857 -0.6447252 0.44985169
0.39090529 -0.37879476 0.45132241
0.40193325 -0.36954418 0.44735813
0.012565896 -0.63652885 0.44612917
0.024487525 -0.62792641 0.4496415
0.37443379 -0.3624177 0.45144501
0.38675624 -0.35418916 0.44757551
-0.0039982051 -0.61952555 0.44618127
0.0086402893 -0.6100837 0.44963667
0.35789612 -0.34506345 0.45122832
0.37086099 -0.33705106 0.44656435
-0.021466285 -0.60196149 0.44533882
-0.0092688799 -0.59234047 0.44957054
0.34125191 -0.32829884 0.45154715
0.35433558 -0.31911948 0.44688526
-0.037416667 -0.58521056 0.44562584
-0.025328144 -0.57555801 0.44931725
0.32523656 -0.31037319 0.45176846
0.33777365 -0.30151099 0.44617215
-0.052430943 -0.56746376 0.44551635
-0.041209489 -0.55798078 0.44991633
0.30873868 -0.29353058 0.45258728
0.32141292 -0.28410128 0.44700277
-0.068278626 -0.55060691 0.44603312
-0.057039365 -0.54077446 0.44944555
0.2936897 -0.27473372 0.45095974
0.30416912 -0.2661306 0.44701344
-0.085327506 -0.53388923 0.44571516
-0.073109284 -0.52401459 0.44907394
0.27874213 -0.25909221 0.45115575
0.29002029 -0.24939987 0.44737509
-0.10157858 -0.51584947 0.44637784
-0.089545161 -0.50738227 0.44829428
0.26238388 -0.24069378 0.45083088
0.27395713 -0.23377573 0.44758663
-0.11804879 -0.49907714 0.44516557
-0.10578522 -0.48986948 0.44827485
0.24650288 -0.22442722 0.45127392
0.25722116 -0.21521002 0.44708282
-0.15513217 -0.48640385 0.45148477
-0.13800684 -0.48224533 0.44896361
-0.11932176 -0.47225147 0.45003328
-0.10414578 -0.44994342 0.45111504
-0.084395736 -0.43508658 0.45094472
-0.065590486 -0.42067185 0.45117146
-0.046680838 -0.40625626 0.45133543
-0.0264889 -0.39099067 0.45132598
-0.0087738633 -0.37759864 0.45058545
0.010749787 -0.36305991 0.4511722
0.030415922 -0.34787023 0.4510985
0.04923778 -0.33410946 0.45342544
0.067677282 -0.31969604 0.45072532
0.088471755 -0.30444139 0.4518503
0.10721652 -0.28983164 0.45022571
0.12620239 -0.27586341 0.45266244
0.14547966 -0.26127794 0.4518142
0.16431969 -0.24701703 0.45175061
0.18428767 -0.23214033 0.45072836
0.20189683 -0.21891943 0.45077536
0.22969988 -0.20955794 0.45106435
0.24405652 -0.19353943 0.44947174
0.251468 -0.18085793 0.45207697
-0.15971389 -0.4812445 0.44991198
-0.15392184 -0.46441177 0.44906238
-0.13671446 -0.44933322 0.44905844
-0.11248001 -0.43985522 0.44722044
-0.093363345 -0.42586902 0.44640252
-0.073926508 -0.41117409 0.44645277
-0.055260792 -0.39707035 0.44586426
-0.034865141 -0.38180852 0.44604689
-0.016307771 -0.36733532 0.44617927
0.0023726076 -0.35417005 0.44628081
0.022006854 -0.33856639 0.44577748
0.041151904 -0.32498249 0.4487364
0.059625246 -0.30996701 0.44571337
0.079643376 -0.29575837 0.4466095
0.098026365 -0.28079283 0.44636175
0.11747772 -0.2673955 0.44684348
0.13704655 -0.25194874 0.44600657
0.15576842 -0.23808476 0.44584453
0.1744654 -0.22362286 0.44581893
0.19361579 -0.20824441 0.44690645
0.20818734 -0.18798293 0.44943064
0.22790816 -0.17612021 0.44832462
0.24534312 -0.17286912 0.44918379
-0.15516764 -0.4521288 0.45041302
-0.14556631 -0.44476646 0.44834197
0.20381802 -0.18093455 0.44718885
0.21571207 -0.17255399 0.45084813
0.16609675 -0.8058449 0.46833429
0.18313381 -0.79313964 0.46881238
0.51476336 -0.53895354 0.46809205
0.5281949 -0.53229082 0.46972153
0.54536688 -0.51979083 0.46860769
0.14223339 -0.80330217 0.46507457
0.15173143 -0.79368591 0.46964678
0.17079058 -0.77969939 0.47020498
0.18759452 -0.76234454 0.47066972
0.20652665 -0.74628949 0.47044209
0.2258856 -0.73169374 0.47009495
0.24350196 -0.7179631 0.47042933
0.26317197 -0.70376611 0.47093573
0.28331512 -0.68815446 0.47104654
0.3020469 -0.67380404 0.47126958
0.32128471 -0.6597054 0.4705511
0.34057313 -0.64541733 0.47114107
0.35951149 -0.63109487 0.47065559
0.37813494 -0.61678612 0.47130778
0.39740404 -0.60255277 0.47107896
0.41766331 -0.58710307 0.47125271
0.43715405 -0.57263017 0.4722347
0.45493555 -0.55922973 0.47088841
0.47398779 -0.54453707 0.47101662
0.4948484 -0.53054315 0.47088465
0.51558876 -0.51876193 0.47160843
0.53513819 -0.5059073 0.47024366
0.54713064 -0.49607223 0.46141443
0.14573678 -0.78024119 0.46733966
0.15653208 -0.76199013 0.47091284
0.17464851 -0.74720043 0.47314516
0.19269879 -0.73334509 0.4727197
0.21291517 -0.7179625 0.47293034
0.23225437 -0.70478761 0.47390077
0.25108093 -0.68984926 0.47416934
0.26988226 -0.67555243 0.47349748
0.28819692 -0.66088206 0.47346112
0.30821419 -0.64661551 0.47416672
0.32772467 -0.63225591 0.47435841
0.34558141 -0.61769736 0.4734678
0.36613896 -0.6034109 0.47400329
0.38576359 -0.58833408 0.47414872
0.4045428 -0.57450539 0.47411683
0.42327753 -0.559542 0.47475263
0.44236669 -0.54474789 0.47423849
0.46188208 -0.5306893 0.47488651
0.48051664 -0.51689982 0.47502938
0.50115961 -0.50415528 0.4707782
0.52160227 -0.49735472 0.46671221
0.13449371 -0.75812185 0.46497825
0.13983122 -0.74488312 0.47011963
0.15810257 -0.73009467 0.47248814
0.17678714 -0.71556783 0.47313032
0.19710985 -0.70141345 0.47257158
0.21594891 -0.68710572 0.47311994
0.23492424 -0.67322481 0.47274873
0.25376931 -0.65822303 0.47416618
0.27230793 -0.64356124 0.47392449
0.29242665 -0.62994874 0.47371504
0.31118658 -0.61472976 0.47364029
0.32970756 -0.6004585 0.47282752
0.34937987 -0.58548963 0.47446945
0.36952507 -0.57128173 0.47426137
0.38876149 -0.55716789 0.4738771
0.40739182 -0.54246068 0.47461006
0.42631328 -0.5273298 0.47495857
0.44582126 -0.51336229 0.47411934
0.46443054 -0.49905872 0.47514442
0.48209032 -0.48609099 0.47110465
0.11331615 -0.73643398 0.46372563
0.12399827 -0.72678447 0.47073039
0.1421285 -0.71294302 0.47346923
0.16065568 -0.69949049 0.47319165
0.1811558 -0.6834296 0.47328994
0.19968009 -0.66926318 0.47369727
0.21905667 -0.65535116 0.47264543
0.23812011 -0.64144003 0.47362497
0.25705701 -0.62646115 0.47260001
0.27620584 -0.61291075 0.47373709
0.29572716 -0.59799308 0.4744468
0.314055 -0.58356458 0.47361794
0.33384311 -0.56848937 0.47416517
0.35347337 -0.55288064 0.47385791
0.37266287 -0.53952658 0.47380129
0.39073753 -0.52463877 0.4748877
0.41061959 -0.51076633 0.47435305
0.43010315 -0.49607849 0.47417852
0.44869846 -0.48144907 0.47546944
0.46639746 -0.46806508 0.47164032
0.10694462 -0.71041888 0.46989706
0.12666196 -0.69551569 0.47267655
0.14538893 -0.68223763 0.47269025
0.16403718 -0.66673028 0.47266957
0.18392171 -0.6529094 0.47384778
0.20280769 -0.63843822 0.47337684
0.22278394 -0.62442291 0.47371671
0.24019063 -0.60943097 0.47298726
