# .PCD v0.7 - Point Cloud Data file format
VERSION 0.7
FIELDS x y z
SIZE 4 4 4
TYPE F F F
COUNT 1 1 1
WIDTH 1094
HEIGHT 1
VIEWPOINT 0 0 0 1 0 0 0
POINTS 1094
DATA ascii
-1.4752395e+08 -1.4752395e+08 -1.4752395e+08
-1.4797042e+08 -1.4797042e+08 -1.4797042e+08
-1.4582477e+08 -1.4582477e+08 -1.4582477e+08
-1.483923e+08 -1.483923e+08 -1.483923e+08
-1.4984477e+08 -1.4984477e+08 -1.4984477e+08
-1.510696e+08 -1.510696e+08 -1.510696e+08
-1.5055334e+08 -1.5055334e+08 -1.5055334e+08
-80717872 -80717872 -80717872
-79724816 -79724816 -79724816
-82777384 -82777384 -82777384
-85756888 -85756888 -85756888
-87822832 -87822832 -87822832
-88503560 -88503560 -88503560
-87174752 -87174752 -87174752
-88563336 -88563336 -88563336
-90755520 -90755520 -90755520
-92776688 -92776688 -92776688
-93025936 -93025936 -93025936
-94706336 -94706336 -94706336
-96765408 -96765408 -96765408
-99243320 -99243320 -99243320
-96426984 -96426984 -96426984
-98891248 -98891248 -98891248
-1.0125106e+08 -1.0125106e+08 -1.0125106e+08
-1.032035e+08 -1.032035e+08 -1.032035e+08
-1.0297869e+08 -1.0297869e+08 -1.0297869e+08
-1.0579726e+08 -1.0579726e+08 -1.0579726e+08
-1.0747499e+08 -1.0747499e+08 -1.0747499e+08
-1.0732808e+08 -1.0732808e+08 -1.0732808e+08
-1.0967944e+08 -1.0967944e+08 -1.0967944e+08
-1.1199517e+08 -1.1199517e+08 -1.1199517e+08
-1.1143246e+08 -1.1143246e+08 -1.1143246e+08
-1.1387055e+08 -1.1387055e+08 -1.1387055e+08
-1.1622642e+08 -1.1622642e+08 -1.1622642e+08
-1.1846601e+08 -1.1846601e+08 -1.1846601e+08
-1.1801811e+08 -1.1801811e+08 -1.1801811e+08
-1.2014618e+08 -1.2014618e+08 -1.2014618e+08
-1.2220017e+08 -1.2220017e+08 -1.2220017e+08
-1.2200556e+08 -1.2200556e+08 -1.2200556e+08
-1.2444573e+08 -1.2444573e+08 -1.2444573e+08
-1.2773905e+08 -1.2773905e+08 -1.2773905e+08
-1.263877e+08 -1.263877e+08 -1.263877e+08
-1.2953667e+08 -1.2953667e+08 -1.2953667e+08
-1.319155e+08 -1.319155e+08 -1.319155e+08
-1.3413271e+08 -1.3413271e+08 -1.3413271e+08
-1.3672538e+08 -1.3672538e+08 -1.3672538e+08
-1.3868509e+08 -1.3868509e+08 -1.3868509e+08
-1.3895242e+08 -1.3895242e+08 -1.3895242e+08
-1.4069502e+08 -1.4069502e+08 -1.4069502e+08
-1.429971e+08 -1.429971e+08 -1.429971e+08
-1.4481579e+08 -1.4481579e+08 -1.4481579e+08
-1.4655454e+08 -1.4655454e+08 -1.4655454e+08
-1.4627526e+08 -1.4627526e+08 -1.4627526e+08
-1.4766774e+08 -1.4766774e+08 -1.4766774e+08
-1.4629242e+08 -1.4629242e+08 -1.4629242e+08
-1.4663098e+08 -1.4663098e+08 -1.4663098e+08
-1.4730306e+08 -1.4730306e+08 -1.4730306e+08
-1.4635654e+08 -1.4635654e+08 -1.4635654e+08
-1.4753258e+08 -1.4753258e+08 -1.4753258e+08
-1.4780758e+08 -1.4780758e+08 -1.4780758e+08
-1.4928912e+08 -1.4928912e+08 -1.4928912e+08
-1.4673501e+08 -1.4673501e+08 -1.4673501e+08
-1.4870974e+08 -1.4870974e+08 -1.4870974e+08
-1.4684357e+08 -1.4684357e+08 -1.4684357e+08
-1.4946146e+08 -1.4946146e+08 -1.4946146e+08
-1.5005165e+08 -1.5005165e+08 -1.5005165e+08
-1.4876638e+08 -1.4876638e+08 -1.4876638e+08
-1.501259e+08 -1.501259e+08 -1.501259e+08
-1.492791e+08 -1.492791e+08 -1.492791e+08
-1.5033157e+08 -1.5033157e+08 -1.5033157e+08
-1.5109277e+08 -1.5109277e+08 -1.5109277e+08
-1.5097229e+08 -1.5097229e+08 -1.5097229e+08
-1.464129e+08 -1.464129e+08 -1.464129e+08
-1.4766906e+08 -1.4766906e+08 -1.4766906e+08
-1.5172966e+08 -1.5172966e+08 -1.5172966e+08
-1.5066826e+08 -1.5066826e+08 -1.5066826e+08
-1.4701619e+08 -1.4701619e+08 -1.4701619e+08
-1.5171269e+08 -1.5171269e+08 -1.5171269e+08
-1.524711e+08 -1.524711e+08 -1.524711e+08
-1.5320819e+08 -1.5320819e+08 -1.5320819e+08
-1.5420797e+08 -1.5420797e+08 -1.5420797e+08
-1.526449e+08 -1.526449e+08 -1.526449e+08
-82328448 -82328448 -82328448
-84951168 -84951168 -84951168
-88006056 -88006056 -88006056
-90333912 -90333912 -90333912
-89245488 -89245488 -89245488
-89264192 -89264192 -89264192
-1.4170998e+08 -1.4170998e+08 -1.4170998e+08
-1.4246883e+08 -1.4246883e+08 -1.4246883e+08
-1.448081e+08 -1.448081e+08 -1.448081e+08
-1.4707256e+08 -1.4707256e+08 -1.4707256e+08
-1.4903754e+08 -1.4903754e+08 -1.4903754e+08
-1.4862278e+08 -1.4862278e+08 -1.4862278e+08
-1.4990418e+08 -1.4990418e+08 -1.4990418e+08
-1.4991606e+08 -1.4991606e+08 -1.4991606e+08
-1.4790758e+08 -1.4790758e+08 -1.4790758e+08
-1.4859771e+08 -1.4859771e+08 -1.4859771e+08
-1.4793213e+08 -1.4793213e+08 -1.4793213e+08
-1.4869808e+08 -1.4869808e+08 -1.4869808e+08
-1.4776227e+08 -1.4776227e+08 -1.4776227e+08
-1.4916693e+08 -1.4916693e+08 -1.4916693e+08
-1.4887142e+08 -1.4887142e+08 -1.4887142e+08
-1.4941229e+08 -1.4941229e+08 -1.4941229e+08
-1.4939213e+08 -1.4939213e+08 -1.4939213e+08
-1.4890213e+08 -1.4890213e+08 -1.4890213e+08
-1.4980923e+08 -1.4980923e+08 -1.4980923e+08
-1.504337e+08 -1.504337e+08 -1.504337e+08
-1.5000154e+08 -1.5000154e+08 -1.5000154e+08
-1.5073859e+08 -1.5073859e+08 -1.5073859e+08
-1.5017782e+08 -1.5017782e+08 -1.5017782e+08
-1.5101517e+08 -1.5101517e+08 -1.5101517e+08
-1.510416e+08 -1.510416e+08 -1.510416e+08
-1.5041242e+08 -1.5041242e+08 -1.5041242e+08
-1.5147126e+08 -1.5147126e+08 -1.5147126e+08
-1.5143534e+08 -1.5143534e+08 -1.5143534e+08
-1.4817456e+08 -1.4817456e+08 -1.4817456e+08
-1.4998853e+08 -1.4998853e+08 -1.4998853e+08
-1.5161494e+08 -1.5161494e+08 -1.5161494e+08
-1.5182966e+08 -1.5182966e+08 -1.5182966e+08
-1.495767e+08 -1.495767e+08 -1.495767e+08
-1.5076526e+08 -1.5076526e+08 -1.5076526e+08
-1.5198246e+08 -1.5198246e+08 -1.5198246e+08
-1.4931358e+08 -1.4931358e+08 -1.4931358e+08
-1.5105808e+08 -1.5105808e+08 -1.5105808e+08
-1.5249291e+08 -1.5249291e+08 -1.5249291e+08
-1.5398494e+08 -1.5398494e+08 -1.5398494e+08
-1.5441395e+08 -1.5441395e+08 -1.5441395e+08
-1.5547242e+08 -1.5547242e+08 -1.5547242e+08
-1.5578173e+08 -1.5578173e+08 -1.5578173e+08
-1.5580261e+08 -1.5580261e+08 -1.5580261e+08
-1.543583e+08 -1.543583e+08 -1.543583e+08
-1.5507395e+08 -1.5507395e+08 -1.5507395e+08
-84144216 -84144216 -84144216
-86840720 -86840720 -86840720
-89903208 -89903208 -89903208
-92658480 -92658480 -92658480
-90552648 -90552648 -90552648
-92084968 -92084968 -92084968
-92590880 -92590880 -92590880
-92231944 -92231944 -92231944
-92722552 -92722552 -92722552
-1.445473e+08 -1.445473e+08 -1.445473e+08
-1.4649965e+08 -1.4649965e+08 -1.4649965e+08
-1.4911872e+08 -1.4911872e+08 -1.4911872e+08
-1.5130234e+08 -1.5130234e+08 -1.5130234e+08
-1.5099594e+08 -1.5099594e+08 -1.5099594e+08
-1.5221622e+08 -1.5221622e+08 -1.5221622e+08
-1.5158534e+08 -1.5158534e+08 -1.5158534e+08
-1.491215e+08 -1.491215e+08 -1.491215e+08
-1.5086133e+08 -1.5086133e+08 -1.5086133e+08
-1.4748381e+08 -1.4748381e+08 -1.4748381e+08
-1.4779562e+08 -1.4779562e+08 -1.4779562e+08
-1.4790704e+08 -1.4790704e+08 -1.4790704e+08
-1.5235626e+08 -1.5235626e+08 -1.5235626e+08
-1.5360346e+08 -1.5360346e+08 -1.5360346e+08
-1.5597066e+08 -1.5597066e+08 -1.5597066e+08
-1.5642755e+08 -1.5642755e+08 -1.5642755e+08
-1.5782755e+08 -1.5782755e+08 -1.5782755e+08
-1.5802394e+08 -1.5802394e+08 -1.5802394e+08
-1.5585802e+08 -1.5585802e+08 -1.5585802e+08
-1.5733686e+08 -1.5733686e+08 -1.5733686e+08
-86159832 -86159832 -86159832
-89192480 -89192480 -89192480
-91930096 -91930096 -91930096
-94414784 -94414784 -94414784
-93836904 -93836904 -93836904
-95975000 -95975000 -95975000
-94552512 -94552512 -94552512
-1.4687192e+08 -1.4687192e+08 -1.4687192e+08
-1.4698859e+08 -1.4698859e+08 -1.4698859e+08
-1.4869123e+08 -1.4869123e+08 -1.4869123e+08
-1.5077866e+08 -1.5077866e+08 -1.5077866e+08
-95188512 -95188512 -95188512
-1.532889e+08 -1.532889e+08 -1.532889e+08
-1.5249467e+08 -1.5249467e+08 -1.5249467e+08
-1.5415762e+08 -1.5415762e+08 -1.5415762e+08
-1.5421891e+08 -1.5421891e+08 -1.5421891e+08
-1.5181802e+08 -1.5181802e+08 -1.5181802e+08
-1.5642912e+08 -1.5642912e+08 -1.5642912e+08
-1.5744363e+08 -1.5744363e+08 -1.5744363e+08
-1.5926979e+08 -1.5926979e+08 -1.5926979e+08
-1.5991573e+08 -1.5991573e+08 -1.5991573e+08
-1.599244e+08 -1.599244e+08 -1.599244e+08
-1.603072e+08 -1.603072e+08 -1.603072e+08
-1.5865214e+08 -1.5865214e+08 -1.5865214e+08
-88390592 -88390592 -88390592
-91204304 -91204304 -91204304
-93954400 -93954400 -93954400
-95523080 -95523080 -95523080
-98005744 -98005744 -98005744
-98646048 -98646048 -98646048
-99463136 -99463136 -99463136
-1.014891e+08 -1.014891e+08 -1.014891e+08
-1.4881262e+08 -1.4881262e+08 -1.4881262e+08
-1.4763699e+08 -1.4763699e+08 -1.4763699e+08
-1.4919034e+08 -1.4919034e+08 -1.4919034e+08
-1.5125338e+08 -1.5125338e+08 -1.5125338e+08
-1.5192128e+08 -1.5192128e+08 -1.5192128e+08
-96698832 -96698832 -96698832
-97682704 -97682704 -97682704
-1.5499408e+08 -1.5499408e+08 -1.5499408e+08
-1.5487642e+08 -1.5487642e+08 -1.5487642e+08
-1.564067e+08 -1.564067e+08 -1.564067e+08
-1.5593453e+08 -1.5593453e+08 -1.5593453e+08
-1.5573083e+08 -1.5573083e+08 -1.5573083e+08
-1.5547371e+08 -1.5547371e+08 -1.5547371e+08
-1.5705651e+08 -1.5705651e+08 -1.5705651e+08
-1.57696e+08 -1.57696e+08 -1.57696e+08
-1.5733578e+08 -1.5733578e+08 -1.5733578e+08
-1.5786147e+08 -1.5786147e+08 -1.5786147e+08
-1.5845613e+08 -1.5845613e+08 -1.5845613e+08
-1.5841016e+08 -1.5841016e+08 -1.5841016e+08
-1.585957e+08 -1.585957e+08 -1.585957e+08
-1.592557e+08 -1.592557e+08 -1.592557e+08
-1.5967093e+08 -1.5967093e+08 -1.5967093e+08
-1.5934432e+08 -1.5934432e+08 -1.5934432e+08
-1.5984755e+08 -1.5984755e+08 -1.5984755e+08
-1.5973715e+08 -1.5973715e+08 -1.5973715e+08
-1.6099064e+08 -1.6099064e+08 -1.6099064e+08
-1.6181664e+08 -1.6181664e+08 -1.6181664e+08
-1.6192331e+08 -1.6192331e+08 -1.6192331e+08
-1.6271734e+08 -1.6271734e+08 -1.6271734e+08
-90834632 -90834632 -90834632
-93232768 -93232768 -93232768
-95961152 -95961152 -95961152
-97597792 -97597792 -97597792
-99243504 -99243504 -99243504
-1.0165957e+08 -1.0165957e+08 -1.0165957e+08
-1.0482666e+08 -1.0482666e+08 -1.0482666e+08
-1.0293909e+08 -1.0293909e+08 -1.0293909e+08
-1.0579941e+08 -1.0579941e+08 -1.0579941e+08
-1.0895346e+08 -1.0895346e+08 -1.0895346e+08
-1.1011936e+08 -1.1011936e+08 -1.1011936e+08
-1.126703e+08 -1.126703e+08 -1.126703e+08
-1.1554874e+08 -1.1554874e+08 -1.1554874e+08
-1.1495256e+08 -1.1495256e+08 -1.1495256e+08
-1.1720696e+08 -1.1720696e+08 -1.1720696e+08
-1.1960594e+08 -1.1960594e+08 -1.1960594e+08
-1.1892702e+08 -1.1892702e+08 -1.1892702e+08
-1.2088458e+08 -1.2088458e+08 -1.2088458e+08
-1.2373581e+08 -1.2373581e+08 -1.2373581e+08
-1.2511208e+08 -1.2511208e+08 -1.2511208e+08
-1.2802578e+08 -1.2802578e+08 -1.2802578e+08
-1.3059247e+08 -1.3059247e+08 -1.3059247e+08
-1.2883627e+08 -1.2883627e+08 -1.2883627e+08
-1.3194151e+08 -1.3194151e+08 -1.3194151e+08
-1.3526662e+08 -1.3526662e+08 -1.3526662e+08
-1.3368951e+08 -1.3368951e+08 -1.3368951e+08
-1.3590982e+08 -1.3590982e+08 -1.3590982e+08
-1.3868035e+08 -1.3868035e+08 -1.3868035e+08
-1.3794422e+08 -1.3794422e+08 -1.3794422e+08
-1.398899e+08 -1.398899e+08 -1.398899e+08
-1.4280333e+08 -1.4280333e+08 -1.4280333e+08
-1.4545546e+08 -1.4545546e+08 -1.4545546e+08
-1.4198038e+08 -1.4198038e+08 -1.4198038e+08
-1.4415291e+08 -1.4415291e+08 -1.4415291e+08
-1.4663944e+08 -1.4663944e+08 -1.4663944e+08
-1.4994374e+08 -1.4994374e+08 -1.4994374e+08
-1.4717226e+08 -1.4717226e+08 -1.4717226e+08
-1.5316067e+08 -1.5316067e+08 -1.5316067e+08
-1.566327e+08 -1.566327e+08 -1.566327e+08
-98735824 -98735824 -98735824
-99896680 -99896680 -99896680
-1.5738763e+08 -1.5738763e+08 -1.5738763e+08
-98360528 -98360528 -98360528
-1.5761949e+08 -1.5761949e+08 -1.5761949e+08
-1.5848171e+08 -1.5848171e+08 -1.5848171e+08
-1.5805464e+08 -1.5805464e+08 -1.5805464e+08
-1.5634771e+08 -1.5634771e+08 -1.5634771e+08
-1.5758312e+08 -1.5758312e+08 -1.5758312e+08
-1.5651846e+08 -1.5651846e+08 -1.5651846e+08
-1.5805773e+08 -1.5805773e+08 -1.5805773e+08
-1.5751203e+08 -1.5751203e+08 -1.5751203e+08
-1.589833e+08 -1.589833e+08 -1.589833e+08
-1.59212e+08 -1.59212e+08 -1.59212e+08
-1.594272e+08 -1.594272e+08 -1.594272e+08
-1.6015309e+08 -1.6015309e+08 -1.6015309e+08
-1.6043091e+08 -1.6043091e+08 -1.6043091e+08
-1.6113675e+08 -1.6113675e+08 -1.6113675e+08
-1.6067541e+08 -1.6067541e+08 -1.6067541e+08
-1.6054931e+08 -1.6054931e+08 -1.6054931e+08
-1.6000112e+08 -1.6000112e+08 -1.6000112e+08
-1.6116358e+08 -1.6116358e+08 -1.6116358e+08
-1.62012e+08 -1.62012e+08 -1.62012e+08
-1.6245581e+08 -1.6245581e+08 -1.6245581e+08
-1.6256934e+08 -1.6256934e+08 -1.6256934e+08
-1.63052e+08 -1.63052e+08 -1.63052e+08
-1.6398122e+08 -1.6398122e+08 -1.6398122e+08
-1.6374952e+08 -1.6374952e+08 -1.6374952e+08
-1.6398666e+08 -1.6398666e+08 -1.6398666e+08
-1.6485421e+08 -1.6485421e+08 -1.6485421e+08
-93403328 -93403328 -93403328
-96330352 -96330352 -96330352
-98763256 -98763256 -98763256
-99256320 -99256320 -99256320
-1.015184e+08 -1.015184e+08 -1.015184e+08
-1.0571849e+08 -1.0571849e+08 -1.0571849e+08
-1.0854528e+08 -1.0854528e+08 -1.0854528e+08
-1.0984186e+08 -1.0984186e+08 -1.0984186e+08
-1.1271632e+08 -1.1271632e+08 -1.1271632e+08
-1.1433562e+08 -1.1433562e+08 -1.1433562e+08
-1.1716978e+08 -1.1716978e+08 -1.1716978e+08
-1.2090491e+08 -1.2090491e+08 -1.2090491e+08
-1.2375419e+08 -1.2375419e+08 -1.2375419e+08
-1.2602626e+08 -1.2602626e+08 -1.2602626e+08
-1.2741037e+08 -1.2741037e+08 -1.2741037e+08
-1.2973226e+08 -1.2973226e+08 -1.2973226e+08
-1.3179437e+08 -1.3179437e+08 -1.3179437e+08
-1.3555558e+08 -1.3555558e+08 -1.3555558e+08
-1.3866925e+08 -1.3866925e+08 -1.3866925e+08
-1.019331e+08 -1.019331e+08 -1.019331e+08
-1.0218021e+08 -1.0218021e+08 -1.0218021e+08
-1.3944696e+08 -1.3944696e+08 -1.3944696e+08
-1.4259446e+08 -1.4259446e+08 -1.4259446e+08
-1.0205347e+08 -1.0205347e+08 -1.0205347e+08
-1.450465e+08 -1.450465e+08 -1.450465e+08
-1.474556e+08 -1.474556e+08 -1.474556e+08
-1.0260475e+08 -1.0260475e+08 -1.0260475e+08
-1.5125925e+08 -1.5125925e+08 -1.5125925e+08
-1.0273525e+08 -1.0273525e+08 -1.0273525e+08
-1.0284566e+08 -1.0284566e+08 -1.0284566e+08
-1.5519347e+08 -1.5519347e+08 -1.5519347e+08
-1.5792144e+08 -1.5792144e+08 -1.5792144e+08
-1.0039339e+08 -1.0039339e+08 -1.0039339e+08
-1.0150816e+08 -1.0150816e+08 -1.0150816e+08
-1.0253184e+08 -1.0253184e+08 -1.0253184e+08
-1.5934994e+08 -1.5934994e+08 -1.5934994e+08
-99483824 -99483824 -99483824
-1.6166704e+08 -1.6166704e+08 -1.6166704e+08
-1.6066448e+08 -1.6066448e+08 -1.6066448e+08
-1.6026619e+08 -1.6026619e+08 -1.6026619e+08
-1.614533e+08 -1.614533e+08 -1.614533e+08
-1.1010101e+08 -1.1010101e+08 -1.1010101e+08
-1.608828e+08 -1.608828e+08 -1.608828e+08
-1.6159395e+08 -1.6159395e+08 -1.6159395e+08
-1.1215768e+08 -1.1215768e+08 -1.1215768e+08
-1.6028141e+08 -1.6028141e+08 -1.6028141e+08
-1.617127e+08 -1.617127e+08 -1.617127e+08
-1.6179942e+08 -1.6179942e+08 -1.6179942e+08
-1.6261272e+08 -1.6261272e+08 -1.6261272e+08
-1.2724282e+08 -1.2724282e+08 -1.2724282e+08
-1.3098674e+08 -1.3098674e+08 -1.3098674e+08
-1.6342187e+08 -1.6342187e+08 -1.6342187e+08
-1.6351197e+08 -1.6351197e+08 -1.6351197e+08
-1.3240119e+08 -1.3240119e+08 -1.3240119e+08
-1.3542333e+08 -1.3542333e+08 -1.3542333e+08
-1.6366352e+08 -1.6366352e+08 -1.6366352e+08
-1.6363872e+08 -1.6363872e+08 -1.6363872e+08
-1.3664221e+08 -1.3664221e+08 -1.3664221e+08
-1.3847923e+08 -1.3847923e+08 -1.3847923e+08
-1.6373688e+08 -1.6373688e+08 -1.6373688e+08
-1.4438912e+08 -1.4438912e+08 -1.4438912e+08
-1.4595898e+08 -1.4595898e+08 -1.4595898e+08
-1.6450317e+08 -1.6450317e+08 -1.6450317e+08
-1.4749707e+08 -1.4749707e+08 -1.4749707e+08
-1.499996e+08 -1.499996e+08 -1.499996e+08
-1.6513642e+08 -1.6513642e+08 -1.6513642e+08
-1.540392e+08 -1.540392e+08 -1.540392e+08
-1.6579042e+08 -1.6579042e+08 -1.6579042e+08
-1.6581029e+08 -1.6581029e+08 -1.6581029e+08
-1.6144637e+08 -1.6144637e+08 -1.6144637e+08
-1.6646339e+08 -1.6646339e+08 -1.6646339e+08
-1.6361002e+08 -1.6361002e+08 -1.6361002e+08
-1.6515408e+08 -1.6515408e+08 -1.6515408e+08
-1.662919e+08 -1.662919e+08 -1.662919e+08
-1.668544e+08 -1.668544e+08 -1.668544e+08
-95387104 -95387104 -95387104
-98333696 -98333696 -98333696
-1.0085485e+08 -1.0085485e+08 -1.0085485e+08
-1.0174104e+08 -1.0174104e+08 -1.0174104e+08
-1.0473206e+08 -1.0473206e+08 -1.0473206e+08
-1.010416e+08 -1.010416e+08 -1.010416e+08
-1.0676003e+08 -1.0676003e+08 -1.0676003e+08
-1.0878557e+08 -1.0878557e+08 -1.0878557e+08
-1.0973287e+08 -1.0973287e+08 -1.0973287e+08
-1.0140083e+08 -1.0140083e+08 -1.0140083e+08
-1.0311446e+08 -1.0311446e+08 -1.0311446e+08
-1.0807942e+08 -1.0807942e+08 -1.0807942e+08
-1.102779e+08 -1.102779e+08 -1.102779e+08
-1.1321877e+08 -1.1321877e+08 -1.1321877e+08
-1.1503663e+08 -1.1503663e+08 -1.1503663e+08
-1.0012723e+08 -1.0012723e+08 -1.0012723e+08
-1.0295584e+08 -1.0295584e+08 -1.0295584e+08
-1.0579357e+08 -1.0579357e+08 -1.0579357e+08
-1.080779e+08 -1.080779e+08 -1.080779e+08
-1.1027236e+08 -1.1027236e+08 -1.1027236e+08
-1.1209795e+08 -1.1209795e+08 -1.1209795e+08
-1.14361e+08 -1.14361e+08 -1.14361e+08
-1.1659406e+08 -1.1659406e+08 -1.1659406e+08
-1.1728586e+08 -1.1728586e+08 -1.1728586e+08
-1.2007588e+08 -1.2007588e+08 -1.2007588e+08
-1.0201671e+08 -1.0201671e+08 -1.0201671e+08
-1.0402837e+08 -1.0402837e+08 -1.0402837e+08
-1.0764997e+08 -1.0764997e+08 -1.0764997e+08
-1.0977886e+08 -1.0977886e+08 -1.0977886e+08
-1.1228146e+08 -1.1228146e+08 -1.1228146e+08
-1.1448358e+08 -1.1448358e+08 -1.1448358e+08
-1.1658824e+08 -1.1658824e+08 -1.1658824e+08
-1.1861882e+08 -1.1861882e+08 -1.1861882e+08
-1.2085678e+08 -1.2085678e+08 -1.2085678e+08
-1.2265514e+08 -1.2265514e+08 -1.2265514e+08
-1.2359317e+08 -1.2359317e+08 -1.2359317e+08
-1.2441088e+08 -1.2441088e+08 -1.2441088e+08
-1.0296302e+08 -1.0296302e+08 -1.0296302e+08
-1.041452e+08 -1.041452e+08 -1.041452e+08
-1.0730006e+08 -1.0730006e+08 -1.0730006e+08
-1.0979144e+08 -1.0979144e+08 -1.0979144e+08
-1.1161803e+08 -1.1161803e+08 -1.1161803e+08
-1.1399792e+08 -1.1399792e+08 -1.1399792e+08
-1.1635102e+08 -1.1635102e+08 -1.1635102e+08
-1.1871993e+08 -1.1871993e+08 -1.1871993e+08
-1.209139e+08 -1.209139e+08 -1.209139e+08
-1.2298015e+08 -1.2298015e+08 -1.2298015e+08
-1.2511102e+08 -1.2511102e+08 -1.2511102e+08
-1.2701338e+08 -1.2701338e+08 -1.2701338e+08
-1.2823781e+08 -1.2823781e+08 -1.2823781e+08
-1.2947037e+08 -1.2947037e+08 -1.2947037e+08
-1.0242398e+08 -1.0242398e+08 -1.0242398e+08
-1.03922e+08 -1.03922e+08 -1.03922e+08
-1.0663255e+08 -1.0663255e+08 -1.0663255e+08
-1.0882469e+08 -1.0882469e+08 -1.0882469e+08
-1.1180373e+08 -1.1180373e+08 -1.1180373e+08
-1.1427654e+08 -1.1427654e+08 -1.1427654e+08
-1.1573949e+08 -1.1573949e+08 -1.1573949e+08
-1.1713605e+08 -1.1713605e+08 -1.1713605e+08
-1.195889e+08 -1.195889e+08 -1.195889e+08
-1.2232341e+08 -1.2232341e+08 -1.2232341e+08
-1.249501e+08 -1.249501e+08 -1.249501e+08
-1.2674572e+08 -1.2674572e+08 -1.2674572e+08
-1.287457e+08 -1.287457e+08 -1.287457e+08
-1.3108501e+08 -1.3108501e+08 -1.3108501e+08
-1.3240122e+08 -1.3240122e+08 -1.3240122e+08
-1.339943e+08 -1.339943e+08 -1.339943e+08
-1.0356646e+08 -1.0356646e+08 -1.0356646e+08
-1.0670779e+08 -1.0670779e+08 -1.0670779e+08
-1.0811261e+08 -1.0811261e+08 -1.0811261e+08
-1.1037442e+08 -1.1037442e+08 -1.1037442e+08
-1.1275958e+08 -1.1275958e+08 -1.1275958e+08
-1.1500277e+08 -1.1500277e+08 -1.1500277e+08
-1.171057e+08 -1.171057e+08 -1.171057e+08
-1.1945591e+08 -1.1945591e+08 -1.1945591e+08
-1.2138778e+08 -1.2138778e+08 -1.2138778e+08
-1.2353526e+08 -1.2353526e+08 -1.2353526e+08
-1.2594834e+08 -1.2594834e+08 -1.2594834e+08
-1.2832109e+08 -1.2832109e+08 -1.2832109e+08
-1.3050853e+08 -1.3050853e+08 -1.3050853e+08
-1.3268731e+08 -1.3268731e+08 -1.3268731e+08
-1.3473686e+08 -1.3473686e+08 -1.3473686e+08
-1.373236e+08 -1.373236e+08 -1.373236e+08
-1.3841398e+08 -1.3841398e+08 -1.3841398e+08
-1.4004643e+08 -1.4004643e+08 -1.4004643e+08
-1.0293195e+08 -1.0293195e+08 -1.0293195e+08
-1.0530429e+08 -1.0530429e+08 -1.0530429e+08
-1.0776075e+08 -1.0776075e+08 -1.0776075e+08
-1.0988589e+08 -1.0988589e+08 -1.0988589e+08
-1.1189873e+08 -1.1189873e+08 -1.1189873e+08
-1.1497297e+08 -1.1497297e+08 -1.1497297e+08
-1.1698932e+08 -1.1698932e+08 -1.1698932e+08
-1.1919724e+08 -1.1919724e+08 -1.1919724e+08
-1.2154782e+08 -1.2154782e+08 -1.2154782e+08
-1.2378085e+08 -1.2378085e+08 -1.2378085e+08
-1.2574966e+08 -1.2574966e+08 -1.2574966e+08
-1.2807734e+08 -1.2807734e+08 -1.2807734e+08
-1.3024974e+08 -1.3024974e+08 -1.3024974e+08
-1.3252881e+08 -1.3252881e+08 -1.3252881e+08
-1.3501091e+08 -1.3501091e+08 -1.3501091e+08
-1.3685888e+08 -1.3685888e+08 -1.3685888e+08
-1.3897067e+08 -1.3897067e+08 -1.3897067e+08
-1.4122403e+08 -1.4122403e+08 -1.4122403e+08
-1.4281579e+08 -1.4281579e+08 -1.4281579e+08
-1.4453288e+08 -1.4453288e+08 -1.4453288e+08
-1.0386851e+08 -1.0386851e+08 -1.0386851e+08
-1.0545413e+08 -1.0545413e+08 -1.0545413e+08
-1.0764904e+08 -1.0764904e+08 -1.0764904e+08
-1.0975708e+08 -1.0975708e+08 -1.0975708e+08
-1.1191907e+08 -1.1191907e+08 -1.1191907e+08
-1.141508e+08 -1.141508e+08 -1.141508e+08
-1.1738557e+08 -1.1738557e+08 -1.1738557e+08
-1.1903529e+08 -1.1903529e+08 -1.1903529e+08
-1.2126962e+08 -1.2126962e+08 -1.2126962e+08
-1.234567e+08 -1.234567e+08 -1.234567e+08
-1.2581496e+08 -1.2581496e+08 -1.2581496e+08
-1.2806252e+08 -1.2806252e+08 -1.2806252e+08
-1.3026554e+08 -1.3026554e+08 -1.3026554e+08
-1.3204043e+08 -1.3204043e+08 -1.3204043e+08
-1.3399318e+08 -1.3399318e+08 -1.3399318e+08
-1.368161e+08 -1.368161e+08 -1.368161e+08
-1.3904978e+08 -1.3904978e+08 -1.3904978e+08
-1.4115293e+08 -1.4115293e+08 -1.4115293e+08
-1.432349e+08 -1.432349e+08 -1.432349e+08
-1.4551472e+08 -1.4551472e+08 -1.4551472e+08
-1.474561e+08 -1.474561e+08 -1.474561e+08
-1.4931904e+08 -1.4931904e+08 -1.4931904e+08
-1.0529695e+08 -1.0529695e+08 -1.0529695e+08
-1.0804646e+08 -1.0804646e+08 -1.0804646e+08
-1.1036141e+08 -1.1036141e+08 -1.1036141e+08
-1.124009e+08 -1.124009e+08 -1.124009e+08
-1.1401708e+08 -1.1401708e+08 -1.1401708e+08
-1.1615266e+08 -1.1615266e+08 -1.1615266e+08
-1.193391e+08 -1.193391e+08 -1.193391e+08
-1.2160709e+08 -1.2160709e+08 -1.2160709e+08
-1.2370722e+08 -1.2370722e+08 -1.2370722e+08
-1.257033e+08 -1.257033e+08 -1.257033e+08
-1.2777e+08 -1.2777e+08 -1.2777e+08
-1.3004085e+08 -1.3004085e+08 -1.3004085e+08
-1.3226911e+08 -1.3226911e+08 -1.3226911e+08
-1.341746e+08 -1.341746e+08 -1.341746e+08
-1.3629738e+08 -1.3629738e+08 -1.3629738e+08
-1.3849434e+08 -1.3849434e+08 -1.3849434e+08
-1.4096238e+08 -1.4096238e+08 -1.4096238e+08
-1.433032e+08 -1.433032e+08 -1.433032e+08
-1.4543861e+08 -1.4543861e+08 -1.4543861e+08
-1.4755389e+08 -1.4755389e+08 -1.4755389e+08
-1.4982202e+08 -1.4982202e+08 -1.4982202e+08
-1.5143206e+08 -1.5143206e+08 -1.5143206e+08
-1.5361242e+08 -1.5361242e+08 -1.5361242e+08
-1.0423043e+08 -1.0423043e+08 -1.0423043e+08
-1.0569482e+08 -1.0569482e+08 -1.0569482e+08
-1.0821963e+08 -1.0821963e+08 -1.0821963e+08
-1.1017329e+08 -1.1017329e+08 -1.1017329e+08
-1.1233038e+08 -1.1233038e+08 -1.1233038e+08
-1.1453872e+08 -1.1453872e+08 -1.1453872e+08
-1.1646253e+08 -1.1646253e+08 -1.1646253e+08
-1.1829294e+08 -1.1829294e+08 -1.1829294e+08
-1.2123857e+08 -1.2123857e+08 -1.2123857e+08
-1.2339624e+08 -1.2339624e+08 -1.2339624e+08
-1.2587314e+08 -1.2587314e+08 -1.2587314e+08
-1.2811092e+08 -1.2811092e+08 -1.2811092e+08
-1.3003298e+08 -1.3003298e+08 -1.3003298e+08
-1.3199502e+08 -1.3199502e+08 -1.3199502e+08
-1.3422168e+08 -1.3422168e+08 -1.3422168e+08
-1.3662262e+08 -1.3662262e+08 -1.3662262e+08
-1.3858587e+08 -1.3858587e+08 -1.3858587e+08
-1.405848e+08 -1.405848e+08 -1.405848e+08
-1.427704e+08 -1.427704e+08 -1.427704e+08
-1.4514003e+08 -1.4514003e+08 -1.4514003e+08
-1.4750291e+08 -1.4750291e+08 -1.4750291e+08
-1.4970811e+08 -1.4970811e+08 -1.4970811e+08
-1.5188515e+08 -1.5188515e+08 -1.5188515e+08
-1.5411126e+08 -1.5411126e+08 -1.5411126e+08
-1.5663254e+08 -1.5663254e+08 -1.5663254e+08
-1.5753616e+08 -1.5753616e+08 -1.5753616e+08
-1.5989608e+08 -1.5989608e+08 -1.5989608e+08
-1.0227053e+08 -1.0227053e+08 -1.0227053e+08
-1.0397566e+08 -1.0397566e+08 -1.0397566e+08
-1.056111e+08 -1.056111e+08 -1.056111e+08
-1.0849493e+08 -1.0849493e+08 -1.0849493e+08
-1.1086698e+08 -1.1086698e+08 -1.1086698e+08
-1.1238917e+08 -1.1238917e+08 -1.1238917e+08
-1.1435312e+08 -1.1435312e+08 -1.1435312e+08
-1.1685499e+08 -1.1685499e+08 -1.1685499e+08
-1.188776e+08 -1.188776e+08 -1.188776e+08
-1.2083024e+08 -1.2083024e+08 -1.2083024e+08
-1.2380594e+08 -1.2380594e+08 -1.2380594e+08
-1.2526308e+08 -1.2526308e+08 -1.2526308e+08
-1.2791274e+08 -1.2791274e+08 -1.2791274e+08
-1.3019645e+08 -1.3019645e+08 -1.3019645e+08
-1.3235307e+08 -1.3235307e+08 -1.3235307e+08
-1.344096e+08 -1.344096e+08 -1.344096e+08
-1.3620294e+08 -1.3620294e+08 -1.3620294e+08
-1.3841578e+08 -1.3841578e+08 -1.3841578e+08
-1.406996e+08 -1.406996e+08 -1.406996e+08
-1.4288486e+08 -1.4288486e+08 -1.4288486e+08
-1.4489883e+08 -1.4489883e+08 -1.4489883e+08
-1.4698606e+08 -1.4698606e+08 -1.4698606e+08
-1.4930803e+08 -1.4930803e+08 -1.4930803e+08
-1.516908e+08 -1.516908e+08 -1.516908e+08
-1.5403942e+08 -1.5403942e+08 -1.5403942e+08
-1.5618874e+08 -1.5618874e+08 -1.5618874e+08
-1.5862602e+08 -1.5862602e+08 -1.5862602e+08
-1.6032714e+08 -1.6032714e+08 -1.6032714e+08
-1.6161421e+08 -1.6161421e+08 -1.6161421e+08
-1.0131984e+08 -1.0131984e+08 -1.0131984e+08
-1.0924762e+08 -1.0924762e+08 -1.0924762e+08
-1.1067288e+08 -1.1067288e+08 -1.1067288e+08
-1.1285606e+08 -1.1285606e+08 -1.1285606e+08
-1.148663e+08 -1.148663e+08 -1.148663e+08
-1.1672848e+08 -1.1672848e+08 -1.1672848e+08
-1.1896663e+08 -1.1896663e+08 -1.1896663e+08
-1.2073323e+08 -1.2073323e+08 -1.2073323e+08
-1.2301621e+08 -1.2301621e+08 -1.2301621e+08
-1.2624794e+08 -1.2624794e+08 -1.2624794e+08
-1.2801922e+08 -1.2801922e+08 -1.2801922e+08
-1.2993042e+08 -1.2993042e+08 -1.2993042e+08
-1.3215387e+08 -1.3215387e+08 -1.3215387e+08
-1.3438597e+08 -1.3438597e+08 -1.3438597e+08
-1.3662005e+08 -1.3662005e+08 -1.3662005e+08
-1.3858862e+08 -1.3858862e+08 -1.3858862e+08
-1.4058682e+08 -1.4058682e+08 -1.4058682e+08
-1.4264838e+08 -1.4264838e+08 -1.4264838e+08
-1.4492019e+08 -1.4492019e+08 -1.4492019e+08
-1.4716355e+08 -1.4716355e+08 -1.4716355e+08
-1.4921066e+08 -1.4921066e+08 -1.4921066e+08
-1.5146464e+08 -1.5146464e+08 -1.5146464e+08
-1.5352998e+08 -1.5352998e+08 -1.5352998e+08
-1.5609331e+08 -1.5609331e+08 -1.5609331e+08
-1.5839126e+08 -1.5839126e+08 -1.5839126e+08
-1.605491e+08 -1.605491e+08 -1.605491e+08
-1.6232533e+08 -1.6232533e+08 -1.6232533e+08
-1.6223992e+08 -1.6223992e+08 -1.6223992e+08
-1.1298013e+08 -1.1298013e+08 -1.1298013e+08
-1.1530499e+08 -1.1530499e+08 -1.1530499e+08
-1.1699458e+08 -1.1699458e+08 -1.1699458e+08
-1.1922517e+08 -1.1922517e+08 -1.1922517e+08
-1.2114632e+08 -1.2114632e+08 -1.2114632e+08
-1.2317944e+08 -1.2317944e+08 -1.2317944e+08
-1.2495653e+08 -1.2495653e+08 -1.2495653e+08
-1.2829011e+08 -1.2829011e+08 -1.2829011e+08
-1.3055157e+08 -1.3055157e+08 -1.3055157e+08
-1.3253354e+08 -1.3253354e+08 -1.3253354e+08
-1.345008e+08 -1.345008e+08 -1.345008e+08
-1.3639882e+08 -1.3639882e+08 -1.3639882e+08
-1.3862688e+08 -1.3862688e+08 -1.3862688e+08
-1.408927e+08 -1.408927e+08 -1.408927e+08
-1.4294782e+08 -1.4294782e+08 -1.4294782e+08
-1.4489328e+08 -1.4489328e+08 -1.4489328e+08
-1.4691138e+08 -1.4691138e+08 -1.4691138e+08
-1.4915981e+08 -1.4915981e+08 -1.4915981e+08
-1.5140211e+08 -1.5140211e+08 -1.5140211e+08
-1.5360074e+08 -1.5360074e+08 -1.5360074e+08
-1.5566387e+08 -1.5566387e+08 -1.5566387e+08
-1.5795285e+08 -1.5795285e+08 -1.5795285e+08
-1.6044579e+08 -1.6044579e+08 -1.6044579e+08
-1.628287e+08 -1.628287e+08 -1.628287e+08
-1.6322738e+08 -1.6322738e+08 -1.6322738e+08
-1.0838333e+08 -1.0838333e+08 -1.0838333e+08
-1.1020304e+08 -1.1020304e+08 -1.1020304e+08
-1.1308806e+08 -1.1308806e+08 -1.1308806e+08
-1.1521472e+08 -1.1521472e+08 -1.1521472e+08
-1.1739772e+08 -1.1739772e+08 -1.1739772e+08
-1.1943789e+08 -1.1943789e+08 -1.1943789e+08
-1.2138673e+08 -1.2138673e+08 -1.2138673e+08
-1.2356931e+08 -1.2356931e+08 -1.2356931e+08
-1.2559938e+08 -1.2559938e+08 -1.2559938e+08
-1.2762227e+08 -1.2762227e+08 -1.2762227e+08
-1.3045304e+08 -1.3045304e+08 -1.3045304e+08
-1.3261514e+08 -1.3261514e+08 -1.3261514e+08
-1.3484606e+08 -1.3484606e+08 -1.3484606e+08
-1.368771e+08 -1.368771e+08 -1.368771e+08
-1.3887538e+08 -1.3887538e+08 -1.3887538e+08
-1.4070445e+08 -1.4070445e+08 -1.4070445e+08
-1.4287378e+08 -1.4287378e+08 -1.4287378e+08
-1.4514035e+08 -1.4514035e+08 -1.4514035e+08
-1.4752035e+08 -1.4752035e+08 -1.4752035e+08
-1.4922013e+08 -1.4922013e+08 -1.4922013e+08
-1.5114843e+08 -1.5114843e+08 -1.5114843e+08
-1.5335698e+08 -1.5335698e+08 -1.5335698e+08
-1.5564378e+08 -1.5564378e+08 -1.5564378e+08
-1.5779077e+08 -1.5779077e+08 -1.5779077e+08
-1.6013795e+08 -1.6013795e+08 -1.6013795e+08
-1.6209856e+08 -1.6209856e+08 -1.6209856e+08
-1.6335282e+08 -1.6335282e+08 -1.6335282e+08
-1.1357878e+08 -1.1357878e+08 -1.1357878e+08
-1.1657018e+08 -1.1657018e+08 -1.1657018e+08
-1.1946579e+08 -1.1946579e+08 -1.1946579e+08
-1.2165955e+08 -1.2165955e+08 -1.2165955e+08
-1.235579e+08 -1.235579e+08 -1.235579e+08
-1.2566556e+08 -1.2566556e+08 -1.2566556e+08
-1.2787738e+08 -1.2787738e+08 -1.2787738e+08
-1.3001655e+08 -1.3001655e+08 -1.3001655e+08
-1.3266091e+08 -1.3266091e+08 -1.3266091e+08
-1.3483656e+08 -1.3483656e+08 -1.3483656e+08
-1.3686149e+08 -1.3686149e+08 -1.3686149e+08
-1.3908627e+08 -1.3908627e+08 -1.3908627e+08
-1.4159346e+08 -1.4159346e+08 -1.4159346e+08
-1.4317013e+08 -1.4317013e+08 -1.4317013e+08
-1.4498808e+08 -1.4498808e+08 -1.4498808e+08
-1.4721994e+08 -1.4721994e+08 -1.4721994e+08
-1.4954218e+08 -1.4954218e+08 -1.4954218e+08
-1.5154709e+08 -1.5154709e+08 -1.5154709e+08
-1.5350926e+08 -1.5350926e+08 -1.5350926e+08
-1.5542502e+08 -1.5542502e+08 -1.5542502e+08
-1.5762344e+08 -1.5762344e+08 -1.5762344e+08
-1.6022365e+08 -1.6022365e+08 -1.6022365e+08
-1.6225069e+08 -1.6225069e+08 -1.6225069e+08
-1.6317478e+08 -1.6317478e+08 -1.6317478e+08
-1.1791445e+08 -1.1791445e+08 -1.1791445e+08
-1.2078791e+08 -1.2078791e+08 -1.2078791e+08
-1.2360144e+08 -1.2360144e+08 -1.2360144e+08
-1.2607727e+08 -1.2607727e+08 -1.2607727e+08
-1.2830417e+08 -1.2830417e+08 -1.2830417e+08
-1.2994499e+08 -1.2994499e+08 -1.2994499e+08
-1.3213822e+08 -1.3213822e+08 -1.3213822e+08
-1.3480704e+08 -1.3480704e+08 -1.3480704e+08
-1.3697538e+08 -1.3697538e+08 -1.3697538e+08
-1.3917978e+08 -1.3917978e+08 -1.3917978e+08
-1.4112203e+08 -1.4112203e+08 -1.4112203e+08
-1.4350067e+08 -1.4350067e+08 -1.4350067e+08
-1.4547734e+08 -1.4547734e+08 -1.4547734e+08
-1.475072e+08 -1.475072e+08 -1.475072e+08
-1.493745e+08 -1.493745e+08 -1.493745e+08
-1.5125661e+08 -1.5125661e+08 -1.5125661e+08
-1.5355269e+08 -1.5355269e+08 -1.5355269e+08
-1.5579029e+08 -1.5579029e+08 -1.5579029e+08
-1.5786218e+08 -1.5786218e+08 -1.5786218e+08
-1.5997509e+08 -1.5997509e+08 -1.5997509e+08
-1.6184362e+08 -1.6184362e+08 -1.6184362e+08
-1.6349072e+08 -1.6349072e+08 -1.6349072e+08
-1.251165e+08 -1.251165e+08 -1.251165e+08
-1.2767584e+08 -1.2767584e+08 -1.2767584e+08
-1.3053011e+08 -1.3053011e+08 -1.3053011e+08
-1.3234193e+08 -1.3234193e+08 -1.3234193e+08
-1.3423757e+08 -1.3423757e+08 -1.3423757e+08
-1.3689675e+08 -1.3689675e+08 -1.3689675e+08
-1.3961078e+08 -1.3961078e+08 -1.3961078e+08
-1.4145616e+08 -1.4145616e+08 -1.4145616e+08
-1.4352818e+08 -1.4352818e+08 -1.4352818e+08
-1.453104e+08 -1.453104e+08 -1.453104e+08
-1.4751406e+08 -1.4751406e+08 -1.4751406e+08
-1.4976294e+08 -1.4976294e+08 -1.4976294e+08
-1.5187021e+08 -1.5187021e+08 -1.5187021e+08
-1.536351e+08 -1.536351e+08 -1.536351e+08
-1.5559098e+08 -1.5559098e+08 -1.5559098e+08
-1.5781035e+08 -1.5781035e+08 -1.5781035e+08
-1.6006518e+08 -1.6006518e+08 -1.6006518e+08
-1.6216944e+08 -1.6216944e+08 -1.6216944e+08
-1.635132e+08 -1.635132e+08 -1.635132e+08
-1.2910605e+08 -1.2910605e+08 -1.2910605e+08
-1.321884e+08 -1.321884e+08 -1.321884e+08
-1.3452706e+08 -1.3452706e+08 -1.3452706e+08
-1.3663525e+08 -1.3663525e+08 -1.3663525e+08
-1.3907051e+08 -1.3907051e+08 -1.3907051e+08
-1.4170464e+08 -1.4170464e+08 -1.4170464e+08
-1.4344898e+08 -1.4344898e+08 -1.4344898e+08
-1.4596114e+08 -1.4596114e+08 -1.4596114e+08
-1.4776005e+08 -1.4776005e+08 -1.4776005e+08
-1.4971283e+08 -1.4971283e+08 -1.4971283e+08
-1.5176237e+08 -1.5176237e+08 -1.5176237e+08
-1.5400048e+08 -1.5400048e+08 -1.5400048e+08
-1.561376e+08 -1.561376e+08 -1.561376e+08
-1.5766309e+08 -1.5766309e+08 -1.5766309e+08
-1.5988725e+08 -1.5988725e+08 -1.5988725e+08
-1.6200077e+08 -1.6200077e+08 -1.6200077e+08
-1.6408606e+08 -1.6408606e+08 -1.6408606e+08
-1.3297703e+08 -1.3297703e+08 -1.3297703e+08
-1.3571446e+08 -1.3571446e+08 -1.3571446e+08
-1.3861747e+08 -1.3861747e+08 -1.3861747e+08
-1.4153382e+08 -1.4153382e+08 -1.4153382e+08
-1.4395501e+08 -1.4395501e+08 -1.4395501e+08
-1.4589819e+08 -1.4589819e+08 -1.4589819e+08
-1.4808061e+08 -1.4808061e+08 -1.4808061e+08
-1.5027219e+08 -1.5027219e+08 -1.5027219e+08
-1.5216598e+08 -1.5216598e+08 -1.5216598e+08
-1.5397126e+08 -1.5397126e+08 -1.5397126e+08
-1.5601104e+08 -1.5601104e+08 -1.5601104e+08
-1.5824659e+08 -1.5824659e+08 -1.5824659e+08
-1.6040717e+08 -1.6040717e+08 -1.6040717e+08
-1.6218134e+08 -1.6218134e+08 -1.6218134e+08
-1.6399056e+08 -1.6399056e+08 -1.6399056e+08
-1.400657e+08 -1.400657e+08 -1.400657e+08
-1.4302906e+08 -1.4302906e+08 -1.4302906e+08
-1.4614074e+08 -1.4614074e+08 -1.4614074e+08
-1.4840339e+08 -1.4840339e+08 -1.4840339e+08
-1.5026154e+08 -1.5026154e+08 -1.5026154e+08
-1.5233266e+08 -1.5233266e+08 -1.5233266e+08
-1.5451448e+08 -1.5451448e+08 -1.5451448e+08
-1.5655294e+08 -1.5655294e+08 -1.5655294e+08
-1.5846019e+08 -1.5846019e+08 -1.5846019e+08
-1.6028973e+08 -1.6028973e+08 -1.6028973e+08
-1.6244238e+08 -1.6244238e+08 -1.6244238e+08
-1.6458717e+08 -1.6458717e+08 -1.6458717e+08
-1.6534522e+08 -1.6534522e+08 -1.6534522e+08
-1.4405e+08 -1.4405e+08 -1.4405e+08
-1.4734642e+08 -1.4734642e+08 -1.4734642e+08
-1.5026544e+08 -1.5026544e+08 -1.5026544e+08
-1.5271694e+08 -1.5271694e+08 -1.5271694e+08
-1.5460618e+08 -1.5460618e+08 -1.5460618e+08
-1.565465e+08 -1.565465e+08 -1.565465e+08
-1.5874227e+08 -1.5874227e+08 -1.5874227e+08
-1.610783e+08 -1.610783e+08 -1.610783e+08
-1.626943e+08 -1.626943e+08 -1.626943e+08
-1.6428838e+08 -1.6428838e+08 -1.6428838e+08
-1.6546278e+08 -1.6546278e+08 -1.6546278e+08
-1.4828733e+08 -1.4828733e+08 -1.4828733e+08
-1.5131893e+08 -1.5131893e+08 -1.5131893e+08
-1.5404438e+08 -1.5404438e+08 -1.5404438e+08
-1.5689168e+08 -1.5689168e+08 -1.5689168e+08
-1.5892605e+08 -1.5892605e+08 -1.5892605e+08
-1.607763e+08 -1.607763e+08 -1.607763e+08
-1.6307349e+08 -1.6307349e+08 -1.6307349e+08
-1.6475026e+08 -1.6475026e+08 -1.6475026e+08
-1.6628618e+08 -1.6628618e+08 -1.6628618e+08
-1.5488043e+08 -1.5488043e+08 -1.5488043e+08
-1.5826696e+08 -1.5826696e+08 -1.5826696e+08
-1.6111221e+08 -1.6111221e+08 -1.6111221e+08
-1.632201e+08 -1.632201e+08 -1.632201e+08
-1.6474622e+08 -1.6474622e+08 -1.6474622e+08
-1.6681398e+08 -1.6681398e+08 -1.6681398e+08
-1.6708198e+08 -1.6708198e+08 -1.6708198e+08
-1.5962347e+08 -1.5962347e+08 -1.5962347e+08
-1.6233418e+08 -1.6233418e+08 -1.6233418e+08
-1.6505414e+08 -1.6505414e+08 -1.6505414e+08
-1.6771786e+08 -1.6771786e+08 -1.6771786e+08
-1.6773434e+08 -1.6773434e+08 -1.6773434e+08
-1.6632582e+08 -1.6632582e+08 -1.6632582e+08
-1.6807882e+08 -1.6807882e+08 -1.6807882e+08
-95955888 -95955888 -95955888
-97318320 -97318320 -97318320
-1.001105e+08 -1.001105e+08 -1.001105e+08
-1.0242883e+08 -1.0242883e+08 -1.0242883e+08
-1.047569e+08 -1.047569e+08 -1.047569e+08
-1.056371e+08 -1.056371e+08 -1.056371e+08
-1.0196854e+08 -1.0196854e+08 -1.0196854e+08
-1.0494146e+08 -1.0494146e+08 -1.0494146e+08
-1.0633984e+08 -1.0633984e+08 -1.0633984e+08
-1.0796657e+08 -1.0796657e+08 -1.0796657e+08
-1.1006164e+08 -1.1006164e+08 -1.1006164e+08
-1.0398102e+08 -1.0398102e+08 -1.0398102e+08
-1.0582608e+08 -1.0582608e+08 -1.0582608e+08
-1.1000113e+08 -1.1000113e+08 -1.1000113e+08
-1.1214037e+08 -1.1214037e+08 -1.1214037e+08
-1.1457982e+08 -1.1457982e+08 -1.1457982e+08
-1.166772e+08 -1.166772e+08 -1.166772e+08
-1.193417e+08 -1.193417e+08 -1.193417e+08
-1.2097167e+08 -1.2097167e+08 -1.2097167e+08
-1.231431e+08 -1.231431e+08 -1.231431e+08
-1.2519904e+08 -1.2519904e+08 -1.2519904e+08
-1.2525899e+08 -1.2525899e+08 -1.2525899e+08
-1.2744744e+08 -1.2744744e+08 -1.2744744e+08
-1.2958213e+08 -1.2958213e+08 -1.2958213e+08
-1.3115067e+08 -1.3115067e+08 -1.3115067e+08
-1.3343953e+08 -1.3343953e+08 -1.3343953e+08
-1.3438112e+08 -1.3438112e+08 -1.3438112e+08
-1.3598795e+08 -1.3598795e+08 -1.3598795e+08
-1.4774621e+08 -1.4774621e+08 -1.4774621e+08
-1.4991587e+08 -1.4991587e+08 -1.4991587e+08
-1.5258909e+08 -1.5258909e+08 -1.5258909e+08
-1.5525237e+08 -1.5525237e+08 -1.5525237e+08
-1.039408e+08 -1.039408e+08 -1.039408e+08
-1.0468523e+08 -1.0468523e+08 -1.0468523e+08
-1.0600295e+08 -1.0600295e+08 -1.0600295e+08
-1.0303638e+08 -1.0303638e+08 -1.0303638e+08
-1.0341967e+08 -1.0341967e+08 -1.0341967e+08
-1.0901038e+08 -1.0901038e+08 -1.0901038e+08
-1.0942488e+08 -1.0942488e+08 -1.0942488e+08
-1.0513926e+08 -1.0513926e+08 -1.0513926e+08
-1.0738447e+08 -1.0738447e+08 -1.0738447e+08
-1.1272866e+08 -1.1272866e+08 -1.1272866e+08
-1.1349375e+08 -1.1349375e+08 -1.1349375e+08
-1.0929096e+08 -1.0929096e+08 -1.0929096e+08
-1.1003973e+08 -1.1003973e+08 -1.1003973e+08
-1.1167158e+08 -1.1167158e+08 -1.1167158e+08
-1.1273542e+08 -1.1273542e+08 -1.1273542e+08
-1.1535338e+08 -1.1535338e+08 -1.1535338e+08
-1.1754599e+08 -1.1754599e+08 -1.1754599e+08
-1.2182283e+08 -1.2182283e+08 -1.2182283e+08
-1.3345973e+08 -1.3345973e+08 -1.3345973e+08
-1.3460146e+08 -1.3460146e+08 -1.3460146e+08
-1.3685453e+08 -1.3685453e+08 -1.3685453e+08
-97880608 -97880608 -97880608
-99210240 -99210240 -99210240
-1.0220195e+08 -1.0220195e+08 -1.0220195e+08
-1.0468517e+08 -1.0468517e+08 -1.0468517e+08
-1.0712582e+08 -1.0712582e+08 -1.0712582e+08
-1.0331493e+08 -1.0331493e+08 -1.0331493e+08
-1.0595498e+08 -1.0595498e+08 -1.0595498e+08
-1.0775118e+08 -1.0775118e+08 -1.0775118e+08
-1.060236e+08 -1.060236e+08 -1.060236e+08
-1.071497e+08 -1.071497e+08 -1.071497e+08
-1.0814003e+08 -1.0814003e+08 -1.0814003e+08
-1.0517146e+08 -1.0517146e+08 -1.0517146e+08
-1.0578565e+08 -1.0578565e+08 -1.0578565e+08
-1.1050908e+08 -1.1050908e+08 -1.1050908e+08
-1.1223395e+08 -1.1223395e+08 -1.1223395e+08
-1.0666682e+08 -1.0666682e+08 -1.0666682e+08
-1.096341e+08 -1.096341e+08 -1.096341e+08
-1.1419346e+08 -1.1419346e+08 -1.1419346e+08
-1.1436784e+08 -1.1436784e+08 -1.1436784e+08
-1.1013564e+08 -1.1013564e+08 -1.1013564e+08
-1.1249883e+08 -1.1249883e+08 -1.1249883e+08
-1.1426854e+08 -1.1426854e+08 -1.1426854e+08
-99855000 -99855000 -99855000
-1.01028e+08 -1.01028e+08 -1.01028e+08
-1.0432539e+08 -1.0432539e+08 -1.0432539e+08
-1.0678898e+08 -1.0678898e+08 -1.0678898e+08
-1.0427576e+08 -1.0427576e+08 -1.0427576e+08
-1.0822222e+08 -1.0822222e+08 -1.0822222e+08
-1.0563085e+08 -1.0563085e+08 -1.0563085e+08
-1.0767351e+08 -1.0767351e+08 -1.0767351e+08
-1.0917016e+08 -1.0917016e+08 -1.0917016e+08
-1.0817548e+08 -1.0817548e+08 -1.0817548e+08
-1.0923885e+08 -1.0923885e+08 -1.0923885e+08
-1.1008704e+08 -1.1008704e+08 -1.1008704e+08
-1.0726072e+08 -1.0726072e+08 -1.0726072e+08
-1.0811822e+08 -1.0811822e+08 -1.0811822e+08
-1.1248936e+08 -1.1248936e+08 -1.1248936e+08
-1.1482241e+08 -1.1482241e+08 -1.1482241e+08
-1.0868421e+08 -1.0868421e+08 -1.0868421e+08
-1.1130358e+08 -1.1130358e+08 -1.1130358e+08
-1.1405701e+08 -1.1405701e+08 -1.1405701e+08
-1.1612595e+08 -1.1612595e+08 -1.1612595e+08
-1.1668256e+08 -1.1668256e+08 -1.1668256e+08
-1.1439342e+08 -1.1439342e+08 -1.1439342e+08
-1.161016e+08 -1.161016e+08 -1.161016e+08
-1.0224875e+08 -1.0224875e+08 -1.0224875e+08
-1.0331405e+08 -1.0331405e+08 -1.0331405e+08
-1.0692797e+08 -1.0692797e+08 -1.0692797e+08
-1.0817078e+08 -1.0817078e+08 -1.0817078e+08
-1.0603307e+08 -1.0603307e+08 -1.0603307e+08
-1.1117234e+08 -1.1117234e+08 -1.1117234e+08
-1.1030722e+08 -1.1030722e+08 -1.1030722e+08
-1.0777552e+08 -1.0777552e+08 -1.0777552e+08
-1.0932861e+08 -1.0932861e+08 -1.0932861e+08
-1.103501e+08 -1.103501e+08 -1.103501e+08
-1.111357e+08 -1.111357e+08 -1.111357e+08
-1.124941e+08 -1.124941e+08 -1.124941e+08
-1.0934754e+08 -1.0934754e+08 -1.0934754e+08
-1.1003741e+08 -1.1003741e+08 -1.1003741e+08
-1.1451203e+08 -1.1451203e+08 -1.1451203e+08
-1.1670207e+08 -1.1670207e+08 -1.1670207e+08
-1.1086333e+08 -1.1086333e+08 -1.1086333e+08
-1.1327323e+08 -1.1327323e+08 -1.1327323e+08
-1.1557557e+08 -1.1557557e+08 -1.1557557e+08
-1.1792168e+08 -1.1792168e+08 -1.1792168e+08
-1.1862748e+08 -1.1862748e+08 -1.1862748e+08
-1.0398584e+08 -1.0398584e+08 -1.0398584e+08
-1.059287e+08 -1.059287e+08 -1.059287e+08
-1.0949514e+08 -1.0949514e+08 -1.0949514e+08
-1.0745073e+08 -1.0745073e+08 -1.0745073e+08
-1.0993862e+08 -1.0993862e+08 -1.0993862e+08
-1.1216198e+08 -1.1216198e+08 -1.1216198e+08
-1.1234982e+08 -1.1234982e+08 -1.1234982e+08
-1.1021282e+08 -1.1021282e+08 -1.1021282e+08
-1.1203642e+08 -1.1203642e+08 -1.1203642e+08
-1.1312875e+08 -1.1312875e+08 -1.1312875e+08
-1.1444623e+08 -1.1444623e+08 -1.1444623e+08
-1.1135371e+08 -1.1135371e+08 -1.1135371e+08
-1.1219689e+08 -1.1219689e+08 -1.1219689e+08
-1.1653059e+08 -1.1653059e+08 -1.1653059e+08
-1.1869472e+08 -1.1869472e+08 -1.1869472e+08
-1.1268342e+08 -1.1268342e+08 -1.1268342e+08
-1.1525006e+08 -1.1525006e+08 -1.1525006e+08
-1.1800506e+08 -1.1800506e+08 -1.1800506e+08
-1.1995697e+08 -1.1995697e+08 -1.1995697e+08
-1.2039954e+08 -1.2039954e+08 -1.2039954e+08
-1.0758422e+08 -1.0758422e+08 -1.0758422e+08
-1.0592467e+08 -1.0592467e+08 -1.0592467e+08
-1.0794714e+08 -1.0794714e+08 -1.0794714e+08
-1.1108692e+08 -1.1108692e+08 -1.1108692e+08
-1.0891869e+08 -1.0891869e+08 -1.0891869e+08
-1.1173203e+08 -1.1173203e+08 -1.1173203e+08
-1.140085e+08 -1.140085e+08 -1.140085e+08
-1.1438277e+08 -1.1438277e+08 -1.1438277e+08
-1.1467218e+08 -1.1467218e+08 -1.1467218e+08
-1.1514886e+08 -1.1514886e+08 -1.1514886e+08
-1.1648482e+08 -1.1648482e+08 -1.1648482e+08
-1.136345e+08 -1.136345e+08 -1.136345e+08
-1.1413653e+08 -1.1413653e+08 -1.1413653e+08
-1.1855854e+08 -1.1855854e+08 -1.1855854e+08
-1.2068429e+08 -1.2068429e+08 -1.2068429e+08
-1.1549214e+08 -1.1549214e+08 -1.1549214e+08
-1.1777912e+08 -1.1777912e+08 -1.1777912e+08
-1.2012742e+08 -1.2012742e+08 -1.2012742e+08
-1.2122754e+08 -1.2122754e+08 -1.2122754e+08
-1.2230816e+08 -1.2230816e+08 -1.2230816e+08
-1.0953386e+08 -1.0953386e+08 -1.0953386e+08
-1.0780162e+08 -1.0780162e+08 -1.0780162e+08
-1.0981422e+08 -1.0981422e+08 -1.0981422e+08
-1.1314818e+08 -1.1314818e+08 -1.1314818e+08
-1.1098542e+08 -1.1098542e+08 -1.1098542e+08
-1.1355519e+08 -1.1355519e+08 -1.1355519e+08
-1.1606928e+08 -1.1606928e+08 -1.1606928e+08
-1.1604067e+08 -1.1604067e+08 -1.1604067e+08
-1.1648502e+08 -1.1648502e+08 -1.1648502e+08
-1.1777931e+08 -1.1777931e+08 -1.1777931e+08
-1.1950346e+08 -1.1950346e+08 -1.1950346e+08
-1.1556107e+08 -1.1556107e+08 -1.1556107e+08
-1.1630701e+08 -1.1630701e+08 -1.1630701e+08
-1.2123152e+08 -1.2123152e+08 -1.2123152e+08
-1.2325955e+08 -1.2325955e+08 -1.2325955e+08
-1.1745409e+08 -1.1745409e+08 -1.1745409e+08
-1.2019728e+08 -1.2019728e+08 -1.2019728e+08
-1.2266269e+08 -1.2266269e+08 -1.2266269e+08
-1.2376245e+08 -1.2376245e+08 -1.2376245e+08
-1.2452283e+08 -1.2452283e+08 -1.2452283e+08
-1.1146254e+08 -1.1146254e+08 -1.1146254e+08
-1.0959566e+08 -1.0959566e+08 -1.0959566e+08
-1.1501059e+08 -1.1501059e+08 -1.1501059e+08
-1.1244125e+08 -1.1244125e+08 -1.1244125e+08
-1.1512264e+08 -1.1512264e+08 -1.1512264e+08
-1.176557e+08 -1.176557e+08 -1.176557e+08
-1.1804669e+08 -1.1804669e+08 -1.1804669e+08
-1.1850894e+08 -1.1850894e+08 -1.1850894e+08
-1.197023e+08 -1.197023e+08 -1.197023e+08
-1.2134152e+08 -1.2134152e+08 -1.2134152e+08
-1.1771269e+08 -1.1771269e+08 -1.1771269e+08
-1.1842906e+08 -1.1842906e+08 -1.1842906e+08
-1.2401773e+08 -1.2401773e+08 -1.2401773e+08
-1.2536127e+08 -1.2536127e+08 -1.2536127e+08
-1.1934707e+08 -1.1934707e+08 -1.1934707e+08
-1.2203045e+08 -1.2203045e+08 -1.2203045e+08
-1.2462178e+08 -1.2462178e+08 -1.2462178e+08
-1.2568666e+08 -1.2568666e+08 -1.2568666e+08
-1.2655776e+08 -1.2655776e+08 -1.2655776e+08
-1.1315715e+08 -1.1315715e+08 -1.1315715e+08
-1.1341613e+08 -1.1341613e+08 -1.1341613e+08
-1.1170715e+08 -1.1170715e+08 -1.1170715e+08
-1.1166214e+08 -1.1166214e+08 -1.1166214e+08
-1.1598533e+08 -1.1598533e+08 -1.1598533e+08
-1.1719704e+08 -1.1719704e+08 -1.1719704e+08
-1.1348966e+08 -1.1348966e+08 -1.1348966e+08
-1.1436416e+08 -1.1436416e+08 -1.1436416e+08
-1.1735903e+08 -1.1735903e+08 -1.1735903e+08
-1.1957413e+08 -1.1957413e+08 -1.1957413e+08
-1.2070752e+08 -1.2070752e+08 -1.2070752e+08
-1.2157829e+08 -1.2157829e+08 -1.2157829e+08
-1.2358034e+08 -1.2358034e+08 -1.2358034e+08
-1.2009294e+08 -1.2009294e+08 -1.2009294e+08
-1.2056446e+08 -1.2056446e+08 -1.2056446e+08
-1.2582358e+08 -1.2582358e+08 -1.2582358e+08
-1.2742242e+08 -1.2742242e+08 -1.2742242e+08
-1.2146802e+08 -1.2146802e+08 -1.2146802e+08
-1.23801e+08 -1.23801e+08 -1.23801e+08
-1.2649754e+08 -1.2649754e+08 -1.2649754e+08
-1.2787482e+08 -1.2787482e+08 -1.2787482e+08
-1.2800758e+08 -1.2800758e+08 -1.2800758e+08
-1.1470491e+08 -1.1470491e+08 -1.1470491e+08
-1.1586448e+08 -1.1586448e+08 -1.1586448e+08
-1.1329586e+08 -1.1329586e+08 -1.1329586e+08
-1.1352437e+08 -1.1352437e+08 -1.1352437e+08
-1.1740837e+08 -1.1740837e+08 -1.1740837e+08
-1.1958795e+08 -1.1958795e+08 -1.1958795e+08
-1.1586105e+08 -1.1586105e+08 -1.1586105e+08
-1.1795179e+08 -1.1795179e+08 -1.1795179e+08
-1.2026726e+08 -1.2026726e+08 -1.2026726e+08
-1.2187389e+08 -1.2187389e+08 -1.2187389e+08
-1.2460243e+08 -1.2460243e+08 -1.2460243e+08
-1.2241901e+08 -1.2241901e+08 -1.2241901e+08
-1.2323733e+08 -1.2323733e+08 -1.2323733e+08
-1.2593411e+08 -1.2593411e+08 -1.2593411e+08
-1.2808752e+08 -1.2808752e+08 -1.2808752e+08
-1.2898963e+08 -1.2898963e+08 -1.2898963e+08
-1.2628534e+08 -1.2628534e+08 -1.2628534e+08
-1.2828582e+08 -1.2828582e+08 -1.2828582e+08
-1.2983376e+08 -1.2983376e+08 -1.2983376e+08
-1.1653957e+08 -1.1653957e+08 -1.1653957e+08
-1.1737686e+08 -1.1737686e+08 -1.1737686e+08
-1.152948e+08 -1.152948e+08 -1.152948e+08
-1.1583312e+08 -1.1583312e+08 -1.1583312e+08
-1.193235e+08 -1.193235e+08 -1.193235e+08
-1.2148731e+08 -1.2148731e+08 -1.2148731e+08
-1.2011987e+08 -1.2011987e+08 -1.2011987e+08
-1.2213384e+08 -1.2213384e+08 -1.2213384e+08
-1.2369689e+08 -1.2369689e+08 -1.2369689e+08
-1.1828555e+08 -1.1828555e+08 -1.1828555e+08
-1.1929214e+08 -1.1929214e+08 -1.1929214e+08
-1.2164665e+08 -1.2164665e+08 -1.2164665e+08
-1.1821702e+08 -1.1821702e+08 -1.1821702e+08
-1.1954326e+08 -1.1954326e+08 -1.1954326e+08
-1.2205998e+08 -1.2205998e+08 -1.2205998e+08
-1.185588e+08 -1.185588e+08 -1.185588e+08
-1.1949134e+08 -1.1949134e+08 -1.1949134e+08
-1.2194717e+08 -1.2194717e+08 -1.2194717e+08
-1.1953694e+08 -1.1953694e+08 -1.1953694e+08
-1.2177296e+08 -1.2177296e+08 -1.2177296e+08
-1.2330098e+08 -1.2330098e+08 -1.2330098e+08
-1.2001547e+08 -1.2001547e+08 -1.2001547e+08
-1.2225058e+08 -1.2225058e+08 -1.2225058e+08
-1.2303176e+08 -1.2303176e+08 -1.2303176e+08
-1.2054645e+08 -1.2054645e+08 -1.2054645e+08
-1.2241362e+08 -1.2241362e+08 -1.2241362e+08
-1.2339765e+08 -1.2339765e+08 -1.2339765e+08
-1.2226998e+08 -1.2226998e+08 -1.2226998e+08
-1.2377702e+08 -1.2377702e+08 -1.2377702e+08
-1.2113838e+08 -1.2113838e+08 -1.2113838e+08
-1.2203045e+08 -1.2203045e+08 -1.2203045e+08
-1.2477934e+08 -1.2477934e+08 -1.2477934e+08
-1.2585342e+08 -1.2585342e+08 -1.2585342e+08
-1.2238429e+08 -1.2238429e+08 -1.2238429e+08
-1.2368547e+08 -1.2368547e+08 -1.2368547e+08
-1.2656421e+08 -1.2656421e+08 -1.2656421e+08
-1.2306762e+08 -1.2306762e+08 -1.2306762e+08
-1.2601293e+08 -1.2601293e+08 -1.2601293e+08
-1.2485224e+08 -1.2485224e+08 -1.2485224e+08
-1.2774538e+08 -1.2774538e+08 -1.2774538e+08
-1.2404699e+08 -1.2404699e+08 -1.2404699e+08
-1.2766392e+08 -1.2766392e+08 -1.2766392e+08
-1.2924981e+08 -1.2924981e+08 -1.2924981e+08
-1.3044814e+08 -1.3044814e+08 -1.3044814e+08
-1.2869422e+08 -1.2869422e+08 -1.2869422e+08
-1.3018054e+08 -1.3018054e+08 -1.3018054e+08
-1.318044e+08 -1.318044e+08 -1.318044e+08
-1.1814721e+08 -1.1814721e+08 -1.1814721e+08
-1.1965652e+08 -1.1965652e+08 -1.1965652e+08
-1.1773538e+08 -1.1773538e+08 -1.1773538e+08
-1.2120539e+08 -1.2120539e+08 -1.2120539e+08
-1.2380613e+08 -1.2380613e+08 -1.2380613e+08
-1.2486054e+08 -1.2486054e+08 -1.2486054e+08
-1.2541698e+08 -1.2541698e+08 -1.2541698e+08
-1.2445948e+08 -1.2445948e+08 -1.2445948e+08
-1.2462691e+08 -1.2462691e+08 -1.2462691e+08
-1.241363e+08 -1.241363e+08 -1.241363e+08
-1.2431321e+08 -1.2431321e+08 -1.2431321e+08
