# .PCD v0.7 - Point Cloud Data file format
VERSION 0.7
FIELDS x y z
SIZE 4 4 4
TYPE F F F
COUNT 1 1 1
WIDTH 1456
HEIGHT 1
VIEWPOINT 0 0 0 1 0 0 0
POINTS 1456
DATA ascii
0.22846282 0.097977221 0.29529276
0.25370169 0.09863317 0.29363537
0.27868092 0.098434985 0.29141137
0.3038857 0.099056482 0.28950542
0.32885575 0.098740757 0.28734145
0.35350525 0.098494172 0.28529951
0.37842786 0.098864734 0.28357539
0.40322864 0.098726332 0.28129858
0.4283967 0.098764777 0.27943537
0.4529568 0.098957479 0.27751419
0.47823453 0.098938346 0.27548853
0.5031215 0.098862171 0.27325153
0.52766752 0.098608732 0.27144179
0.5527395 0.098993063 0.26938289
0.56854272 0.097859502 0.26880881
0.040686667 0.12351239 0.31746581
0.054175854 0.12343961 0.3150709
0.078923464 0.12382138 0.31238636
0.10399377 0.12328237 0.31027642
0.12899232 0.12379622 0.30830652
0.15410441 0.12335348 0.30607957
0.17943412 0.12366903 0.30424127
0.2046206 0.12389833 0.30221367
0.22927356 0.12331903 0.30012539
0.2537303 0.12347174 0.29812625
0.27845907 0.12368488 0.29594097
0.30417287 0.1237666 0.29408327
0.32908928 0.12368667 0.2921147
0.3533591 0.123577 0.29006532
0.37868118 0.1239624 0.28787473
0.40412056 0.12356001 0.28599665
0.42865658 0.1238755 0.28388828
0.45418978 0.12355995 0.28168723
0.47876525 0.12349045 0.27996933
0.50234079 0.12416929 0.27798444
0.52803314 0.12344241 0.27580789
0.55288231 0.12413675 0.27374363
0.56768036 0.12313062 0.27338222
0.041433096 0.14527112 0.32079184
0.053834617 0.1486904 0.31791756
0.079254806 0.14873987 0.31505314
0.10444629 0.14838195 0.3128694
0.1293655 0.14882904 0.31089836
0.15427262 0.14881885 0.30904013
0.17946851 0.1487546 0.30698052
0.20423317 0.1495294 0.30509833
0.22921312 0.14900291 0.30289894
0.25404704 0.14929152 0.30094609
0.2791146 0.1487546 0.29894838
0.30445039 0.14958501 0.2969214
0.32914317 0.14933646 0.29499853
0.35374904 0.14928228 0.29284504
0.37861264 0.14934927 0.29095748
0.4037087 0.14935195 0.28875837
0.42892992 0.14918196 0.28673318
0.45387852 0.14968377 0.2846947
0.47878575 0.14969605 0.28292862
0.50343847 0.14936429 0.28055632
0.52864528 0.14914286 0.27872494
0.55325603 0.14951819 0.27672866
0.56776536 0.1492098 0.27725801
0.042116225 0.16746706 0.32124048
0.053388536 0.17363346 0.31922272
0.079411685 0.1736486 0.31513131
0.10432452 0.17351508 0.31316796
0.12937605 0.17395419 0.3113949
0.15438902 0.17381531 0.30951512
0.17931056 0.17387396 0.30731159
0.20428795 0.17365545 0.30549338
0.22912514 0.17335576 0.30334958
0.25430357 0.17375094 0.30136088
0.27900207 0.17376274 0.29946741
0.30421197 0.17364001 0.29718277
0.32918084 0.17376047 0.29494685
0.35337996 0.17432332 0.29333431
0.37884974 0.1739049 0.2909196
0.4030782 0.17372036 0.28913537
0.4285295 0.17377156 0.28704718
0.45331228 0.1741147 0.28514153
0.47851682 0.17391092 0.28267255
0.50322592 0.17401391 0.28108755
0.52845848 0.17429417 0.27899471
0.554281 0.17422897 0.27778262
0.56812942 0.17361802 0.27782437
0.041960359 0.19171667 0.32226077
0.05330652 0.19894636 0.31947461
0.079318225 0.19863385 0.31349584
0.10422516 0.19899267 0.31139246
0.12933415 0.19881225 0.30982614
0.15425628 0.19877964 0.30778524
0.17915457 0.19922179 0.30581212
0.20390457 0.19898474 0.30383742
0.22901094 0.19881028 0.3016322
0.25397229 0.19894844 0.29966882
0.27881908 0.19900626 0.29736835
0.30408609 0.19901842 0.2955561
0.32908201 0.19906914 0.29344851
0.35375154 0.19936734 0.29145521
0.37830412 0.19936812 0.28948143
0.40361011 0.19973904 0.28737965
0.4283601 0.19945145 0.28538203
0.45278823 0.19936532 0.2833809
0.47786665 0.19884998 0.28141943
0.50287092 0.19944245 0.27916023
0.52791417 0.19927651 0.27746654
0.55457687 0.19917065 0.27743739
0.56755292 0.19846362 0.2797142
0.052722752 0.22293091 0.32095155
0.079178095 0.22194892 0.31198651
0.10399979 0.22193986 0.31082654
0.12928843 0.22280908 0.30897304
0.15392536 0.22288054 0.30695355
0.17910796 0.2228232 0.30468985
0.20393974 0.22269565 0.30264378
0.22902596 0.22265708 0.30031338
0.25366116 0.2227214 0.29854506
0.27837992 0.2230019 0.29654938
0.30391824 0.22324085 0.29458576
0.32896519 0.22301137 0.29217878
0.35395753 0.22339916 0.29055908
0.37862003 0.22327775 0.28851014
0.40327299 0.22359133 0.28640392
0.42820859 0.22362596 0.28440991
0.4531157 0.22349429 0.2820718
0.47804868 0.22345281 0.28003287
0.50298774 0.22363907 0.27822629
0.52837443 0.22399831 0.27659756
0.5564487 0.22454685 0.27867335
0.56682992 0.22181565 0.27976945
0.052158952 0.24795181 0.3255932
0.0783481 0.24566084 0.31425533
0.10472244 0.24705213 0.31279594
0.13025516 0.24750084 0.3101154
0.15453333 0.24646842 0.30790755
0.17885536 0.24634218 0.30596122
0.20309734 0.24581188 0.30383864
0.22923279 0.2460171 0.30204567
0.25467944 0.24791902 0.29943809
0.27927852 0.24710274 0.29741901
0.30402327 0.24787474 0.29535422
0.32828534 0.24680859 0.29343441
0.35305238 0.24703372 0.29110655
0.37961197 0.24664265 0.288993
0.40408885 0.24633312 0.28700295
0.42828596 0.24668705 0.28484812
0.45396841 0.24584436 0.28261304
0.47660565 0.24607265 0.28029549
0.50289536 0.24676675 0.27877888
0.5284344 0.24747968 0.27637663
0.55808866 0.24862552 0.28159022
0.56659663 0.24616367 0.28270948
0.053140581 0.27286744 0.33080807
0.081666648 0.27417541 0.33587557
0.10627353 0.27773708 0.33544046
0.1307829 0.27540833 0.33130509
0.15650523 0.27403355 0.32630062
0.18167686 0.27508408 0.32672182
0.20658797 0.2747165 0.32372859
0.22937047 0.27549058 0.32419676
0.25661385 0.2755335 0.3189193
0.27990282 0.27385253 0.31660342
0.30713868 0.27581996 0.31618592
0.32866561 0.27604324 0.31361821
0.35572541 0.27532506 0.31140187
0.37846208 0.27685267 0.31280729
0.40488362 0.27431995 0.30865276
0.42888689 0.27546787 0.30871826
0.45353568 0.27506709 0.30561092
0.47912431 0.27558988 0.30494225
0.50483108 0.27593452 0.30245179
0.53123307 0.27583474 0.29810685
0.55955982 0.27360004 0.28765151
0.56735015 0.2657612 0.29502919
0.056106329 0.29746413 0.33518693
0.081452072 0.29793698 0.34098426
0.10648555 0.29776227 0.338994
0.1318174 0.29725033 0.33682454
0.15668243 0.29773206 0.33482167
0.181835 0.29816616 0.3326762
0.20586848 0.29781383 0.33077517
0.231058 0.29831958 0.32876161
0.25640881 0.29909456 0.32669121
0.28282106 0.29707521 0.32418448
0.30644345 0.29929703 0.32244548
0.32976174 0.29855943 0.32035115
0.35479641 0.29836959 0.31834057
0.38053405 0.29803032 0.31610081
0.40434992 0.29820186 0.31390142
0.4301765 0.2976191 0.31175819
0.45534599 0.29746145 0.3097029
0.48031509 0.29858041 0.30729112
0.50579107 0.29865259 0.30551696
0.53027892 0.29896599 0.30342987
0.55736125 0.29846776 0.29221717
0.057454824 0.32216263 0.33754179
0.08186692 0.32188535 0.34220198
0.10653937 0.32148075 0.34021863
0.1309883 0.32176459 0.33824262
0.15630949 0.3226099 0.336155
0.18104929 0.32255554 0.33416408
0.20648241 0.32212412 0.33211449
0.23132575 0.32264292 0.33007836
0.25655389 0.32254624 0.32798925
0.28076613 0.32273746 0.32632232
0.30554533 0.32317913 0.32397449
0.3306036 0.32284987 0.32180977
0.35581231 0.32258153 0.31972599
0.38073421 0.32289541 0.3177081
0.40540636 0.32350004 0.31585771
0.43072307 0.32300031 0.31348255
0.45555305 0.32347572 0.31189993
0.48066986 0.32317328 0.30968368
0.50533497 0.32337856 0.3075296
0.53065026 0.32414389 0.30584714
0.55536985 0.32306242 0.29631686
0.059150457 0.34681678 0.33967948
0.081530154 0.34774578 0.34267291
0.10622787 0.34718955 0.34093419
0.13179064 0.34652889 0.33888933
0.15651572 0.34715998 0.33706301
0.18082488 0.34694052 0.3352271
0.20588696 0.34675145 0.33342767
0.23084199 0.34701228 0.33151981
0.25515544 0.3468864 0.32934001
0.28090787 0.34721029 0.32751384
0.30670118 0.34773171 0.32559156
0.33144164 0.34716237 0.32362041
0.35579956 0.34740603 0.32178319
0.38096857 0.34732318 0.31991652
0.4057374 0.347435 0.31757045
0.43062282 0.34739518 0.31606862
0.45579112 0.34752989 0.31386182
0.48095155 0.34733284 0.31186226
0.50557303 0.34763515 0.30983642
0.53000534 0.34792376 0.30792418
0.55341697 0.34714329 0.29968444
0.060263097 0.37153661 0.34139836
0.082379699 0.37221777 0.34364429
0.10671765 0.37143958 0.34153095
0.13124311 0.37168241 0.3396391
0.15686363 0.37171221 0.33787057
0.18111348 0.37218988 0.33608407
0.20611471 0.37155151 0.33373573
0.23100901 0.37157381 0.33207104
0.25612497 0.37216973 0.32991382
0.28126049 0.3716265 0.3279942
0.30618691 0.37221265 0.32555452
0.33128917 0.37190223 0.3244848
0.35568094 0.37215853 0.32163006
0.38075662 0.37181878 0.32020268
0.40603733 0.37256551 0.31810379
0.43030846 0.37229848 0.31565186
0.45584655 0.3716011 0.31392241
0.48050129 0.37191594 0.31198737
0.50505817 0.37235177 0.31007275
0.53108585 0.37210238 0.30781919
0.55244923 0.37212992 0.30062613
0.061818361 0.39641953 0.34235537
0.081775486 0.39686084 0.34343275
0.10672176 0.39723623 0.34148505
0.13198775 0.39679897 0.33981231
0.15652603 0.39740455 0.33799201
0.18106252 0.39725518 0.33559391
0.20703089 0.39706326 0.33399275
0.23138118 0.39652789 0.331871
0.25754249 0.39700317 0.32992572
0.28200626 0.39706171 0.32826969
0.3067404 0.39694929 0.32583117
0.33072555 0.39752793 0.32400611
0.35633981 0.39700258 0.32211265
0.38071322 0.39654779 0.32006794
0.40581226 0.39783406 0.31805766
0.43118882 0.39750922 0.3161495
0.45542264 0.39692259 0.3143273
0.48149562 0.39723301 0.31199038
0.50509059 0.39759278 0.31042308
0.52996731 0.39689791 0.30797347
0.55163467 0.39744508 0.30295855
0.063278675 0.42228758 0.34437123
0.081555843 0.42188919 0.34484309
0.10678995 0.42223775 0.34314224
0.13203931 0.42200243 0.34110457
0.15648532 0.4222604 0.33896363
0.18195587 0.4217788 0.33696616
0.20716625 0.42236817 0.33561018
0.23167062 0.42222178 0.33305287
0.2566998 0.42191637 0.33147982
0.2811172 0.42213869 0.32926941
0.30621409 0.42216218 0.32766056
0.33091605 0.42236745 0.32487062
0.35608637 0.42213094 0.32334429
0.38175011 0.42248225 0.32118997
0.40661192 0.42233324 0.31909826
0.43170452 0.42191374 0.31747553
0.45657289 0.42221594 0.31504557
0.48113286 0.42246664 0.31330168
0.50587285 0.42254531 0.31128806
0.53018451 0.42187214 0.30940324
0.55156088 0.42280734 0.30498549
0.064940095 0.44783652 0.35124886
0.082533419 0.44557488 0.35315344
0.10745251 0.44581378 0.35163403
0.13249105 0.44566429 0.34961119
0.15747482 0.44620931 0.34791362
0.18245769 0.44579959 0.34565297
0.20715696 0.44616914 0.34402555
0.23212004 0.44577813 0.3415902
0.25749528 0.44597948 0.33967298
0.28221679 0.44607878 0.33790913
0.30717564 0.44597101 0.33559364
0.33188593 0.4459852 0.33392757
0.35662949 0.44593358 0.33168724
0.38159239 0.44637907 0.32994235
0.40674937 0.44599319 0.32781455
0.43162835 0.4460535 0.32564512
0.45650721 0.44625986 0.32382622
0.48144078 0.44609559 0.32162902
0.5062834 0.44610381 0.31960553
0.53113425 0.44573605 0.31754595
0.5525161 0.44752228 0.31182769
0.065725505 0.47062349 0.35788056
0.080270052 0.46456444 0.36209804
0.10811734 0.4622618 0.36105385
0.13336325 0.46266866 0.35913512
0.15909374 0.46253884 0.35722777
0.18329293 0.46269345 0.35524586
0.20724422 0.46272433 0.35270843
0.23225415 0.46284771 0.35118896
0.25739849 0.46270502 0.34855542
0.2830348 0.46307504 0.34649798
0.30700743 0.46219909 0.34429064
0.33190775 0.46315408 0.34201691
0.35642302 0.46292746 0.34059703
0.38174951 0.4632659 0.33824125
0.40640569 0.4631691 0.33619574
0.43175828 0.46301281 0.33375391
0.45612872 0.46301031 0.33181643
0.48283958 0.46319759 0.32920864
0.5072273 0.46327817 0.32809952
0.53217125 0.46266341 0.32613885
0.55236924 0.47069478 0.31683549
0.066055179 0.49559057 0.36127645
0.077573121 0.50140536 0.35589167
0.10754311 0.5070045 0.34916684
0.13347328 0.50692391 0.34713587
0.15772539 0.50699377 0.34442011
0.1820733 0.50697625 0.34250972
0.20624411 0.50691891 0.34061536
0.23304749 0.50691533 0.3383868
0.25617349 0.50727391 0.33641538
0.28214467 0.50759709 0.33438206
0.30708528 0.5071187 0.3320336
0.33183634 0.50742733 0.33045825
0.35716605 0.50788355 0.3281388
0.38107145 0.50808907 0.32625449
0.40549207 0.5079875 0.32441562
0.43124759 0.50769532 0.3217015
0.45628929 0.50831056 0.32020995
0.48071909 0.50800776 0.31773046
0.50515759 0.50791025 0.31522277
0.53211403 0.50792658 0.31289616
0.55161262 0.49645722 0.31993651
0.066637278 0.51633215 0.36633432
0.08309716 0.51926541 0.36351824
0.10799646 0.51933277 0.36106935
0.13331902 0.51945853 0.35927248
0.15809482 0.51940286 0.35708395
0.1827774 0.51920295 0.35443395
0.20765829 0.51940989 0.35271668
0.23263013 0.51945639 0.35054687
0.2578007 0.51945782 0.34870872
0.28263533 0.51940238 0.34648266
0.30745888 0.51948321 0.34440246
0.33246553 0.51937783 0.34224361
0.35747516 0.51950026 0.34048602
0.38252652 0.51961327 0.33821672
0.40741277 0.51948678 0.33622536
0.43215036 0.51933455 0.33385903
0.45708454 0.51940668 0.33192682
0.4817996 0.51928222 0.32974112
0.50717831 0.51946867 0.3280361
0.53214025 0.51944184 0.32569727
0.55005491 0.51695383 0.32529485
0.040380061 0.073157609 0.32354739
0.054973066 0.07221818 0.324541
0.080819249 0.071168005 0.32239237
0.10583091 0.071374655 0.32080594
0.13055623 0.071232319 0.31838945
0.15529603 0.071211219 0.31653243
0.18012726 0.071235955 0.31445414
0.20511216 0.071325541 0.31240886
0.23018777 0.071728587 0.31085572
0.25500524 0.071329057 0.30847886
0.28001559 0.071508169 0.30653396
0.30506814 0.071273685 0.30455634
0.32968724 0.071199775 0.30212751
0.35474598 0.071659207 0.30067512
0.37956762 0.071404576 0.29839644
0.40418935 0.071647048 0.29652426
0.42942381 0.071405828 0.29396921
0.45443511 0.071139753 0.29176342
0.4790777 0.071608245 0.29016265
0.50416696 0.071654499 0.28806725
0.52898073 0.071595609 0.28621358
0.55373156 0.071398854 0.28369474
0.56952882 0.074445665 0.27899036
0.041557908 0.095215142 0.33010408
0.054080904 0.095866501 0.3321414
0.081380725 0.094724953 0.33195779
0.10613567 0.094767988 0.33001965
0.13133818 0.094862282 0.32791886
0.15594316 0.0947721 0.32557917
0.18098962 0.095156193 0.32366398
0.20572525 0.09494549 0.32158193
0.23076808 0.094773233 0.31965241
0.25566387 0.094736457 0.3172417
0.2805934 0.094804168 0.3155213
0.30574834 0.094515264 0.31288889
0.33089304 0.09465605 0.31137905
0.35545719 0.095226407 0.30927506
0.37986577 0.094709933 0.30722094
0.40496433 0.09466356 0.30539155
0.42978334 0.094939828 0.30318975
0.45503366 0.095064759 0.30182418
0.48017704 0.094997942 0.29932263
0.5046972 0.09485513 0.29721066
0.52999508 0.09495002 0.29537153
0.55526829 0.095904469 0.29197288
0.56999278 0.096579373 0.2854867
0.042339981 0.12074149 0.33400887
0.052928865 0.12044579 0.33620131
0.081453085 0.12027234 0.33622923
0.10686004 0.12016881 0.33393738
0.13139915 0.12001729 0.33212733
0.15600586 0.11967623 0.32965875
0.18076545 0.11990893 0.32711136
0.20607322 0.11982059 0.32521614
0.23070407 0.12040764 0.32302561
0.25594282 0.11993575 0.32075328
0.28047836 0.11949158 0.31882223
0.30548537 0.11945909 0.31680676
0.33047485 0.12031388 0.31353077
0.35567439 0.12037623 0.31182981
0.38025773 0.1202783 0.30961034
0.40496731 0.11990964 0.3080487
0.42981672 0.12043524 0.30439764
0.45522559 0.12052965 0.30312276
0.48051941 0.12042916 0.30098876
0.50470912 0.12079495 0.29849687
0.52935588 0.12064832 0.29596961
0.55840743 0.12169945 0.29180682
0.56910861 0.12111306 0.28984183
0.043155491 0.14364684 0.33581325
0.053066015 0.14512062 0.33921462
0.081940889 0.14463192 0.34059185
0.10638839 0.14444399 0.33918747
0.13191307 0.14401311 0.33645532
0.1569283 0.14428133 0.33430639
0.18148035 0.1442017 0.33225033
0.20638919 0.14438957 0.32978314
0.23122728 0.14479655 0.32770056
0.25599289 0.14402431 0.32556093
0.28033102 0.14410251 0.3235741
0.3055613 0.14468372 0.32194877
0.33104694 0.14464813 0.3196381
0.35588694 0.14421117 0.31711021
0.38072932 0.14416659 0.31519303
0.40580559 0.1442306 0.31272873
0.43084967 0.14385337 0.31027892
0.45537889 0.14441717 0.30901626
0.4800142 0.14424616 0.30654517
0.50517893 0.14453894 0.30444965
0.52981198 0.14404225 0.30207703
0.55867279 0.14527583 0.29616508
0.56879127 0.14570636 0.29345855
0.054096818 0.16990179 0.34235537
0.081565857 0.17020249 0.34519899
0.10651797 0.17023349 0.34315971
0.13203114 0.16913098 0.34062099
0.15723348 0.16987348 0.33894652
0.18178493 0.17052102 0.33714366
0.20681143 0.16995871 0.33508101
0.2317816 0.16984892 0.3328912
0.25644886 0.1700666 0.33104652
0.28094685 0.17067093 0.32906252
0.30640745 0.17133319 0.32704601
0.33182454 0.17035967 0.32469398
0.35652399 0.17074585 0.32294446
0.38127303 0.17039591 0.32073101
0.40641034 0.17060357 0.31847191
0.43140483 0.17097533 0.31661102
0.45621228 0.17087317 0.31478781
0.48153126 0.17090285 0.31259781
0.50619006 0.17135781 0.31073824
0.53046954 0.1710968 0.30860096
0.55936515 0.17079711 0.30119252
0.56908643 0.17087859 0.29701906
0.055325627 0.19429976 0.34485
0.081860781 0.19457889 0.34621951
0.10683256 0.19476414 0.34430107
0.13222784 0.19437176 0.34235305
0.15702277 0.19462717 0.3405641
0.18213272 0.19485801 0.33837953
0.20659018 0.19457984 0.3364003
0.23135328 0.19483513 0.33464211
0.25632763 0.1949017 0.33244038
0.28138196 0.19508803 0.33067265
0.30681837 0.19469649 0.32854965
0.33180559 0.1949175 0.32683495
0.35678482 0.19483256 0.32473132
0.38137293 0.19492888 0.32285979
0.40642297 0.19496346 0.3208088
0.43109334 0.19473934 0.31883764
0.45644259 0.19502169 0.31692708
0.4813906 0.19487101 0.31490561
0.50603664 0.19503212 0.31288263
0.53091979 0.19469374 0.31091306
0.55838573 0.19493926 0.30489454
0.56923413 0.19429678 0.29961625
0.056688428 0.21978718 0.34590468
0.081982255 0.21935225 0.34631124
0.10703236 0.21932471 0.34452686
0.13183838 0.2196368 0.34250295
0.15707713 0.21986508 0.34041408
0.18180293 0.21935588 0.33879048
0.20696515 0.21960425 0.33661982
0.23171115 0.22001857 0.33465448
0.25682688 0.2196725 0.33247441
0.28201067 0.21996754 0.33040115
0.30766678 0.21937031 0.32896402
0.33166397 0.21982449 0.32649055
0.35611761 0.21991324 0.32484308
0.38124228 0.21953738 0.32271937
0.40600479 0.21985519 0.32070798
0.43108773 0.21979737 0.31872219
0.45612383 0.2196179 0.31680378
0.48084354 0.21966267 0.31466156
0.50598061 0.22020197 0.31262413
0.53061628 0.21930593 0.3106313
0.55714047 0.22025067 0.30589691
0.56873798 0.21873438 0.30051321
0.058334589 0.24497014 0.34653559
0.081938863 0.24522781 0.34571251
0.10693741 0.24525303 0.34398326
0.13180232 0.24563724 0.34179997
0.15692836 0.24562681 0.33999461
0.18224299 0.2452572 0.33789548
0.2066288 0.24530864 0.33591861
0.23195124 0.24555039 0.33379409
0.25655687 0.24503356 0.33227
0.28084075 0.24551076 0.33019438
0.30610693 0.24604958 0.3280786
0.33184636 0.24511635 0.32601818
0.35615671 0.24529278 0.32411665
0.38111639 0.24544686 0.32235071
0.40595031 0.24524623 0.32019237
0.43133748 0.24552208 0.3180196
0.45624125 0.24533194 0.31612056
0.48116434 0.24508554 0.31421947
0.50596631 0.24551398 0.31205505
0.53065884 0.24556226 0.31010202
0.55646181 0.2454437 0.30618531
0.56832087 0.24229866 0.30029392
0.059435129 0.26928866 0.34742975
0.08219707 0.26940995 0.345952
0.10744351 0.26983577 0.34377486
0.13196874 0.26995057 0.34207487
0.15633613 0.26953375 0.33989346
0.18161464 0.26982182 0.33792466
0.20629406 0.26964641 0.33624074
0.23174751 0.26965046 0.33419314
0.25627744 0.26973611 0.3322657
0.28099036 0.26983517 0.33013374
0.30702174 0.26960671 0.32788202
0.3318603 0.26981044 0.32600495
0.35631859 0.27009678 0.32405671
0.38156629 0.26957029 0.32213616
0.4066205 0.27012694 0.32009879
0.43131924 0.27008414 0.31819534
0.45591736 0.27003449 0.3162255
0.48104084 0.27033371 0.31427851
0.50567079 0.27005804 0.31223148
0.53051269 0.27028096 0.31015357
0.55538905 0.27011281 0.30728367
0.060055017 0.29367626 0.34939921
0.082421064 0.29358804 0.34792945
0.10692662 0.29410565 0.34562042
0.13204074 0.2944051 0.34381542
0.15728956 0.29406905 0.3416982
0.18202549 0.29373223 0.33967543
0.20725882 0.2939536 0.33742508
0.23195362 0.29389906 0.33551809
0.25667667 0.29426169 0.33337447
0.28188145 0.29463792 0.33128807
0.30583274 0.2936393 0.32950458
0.33121586 0.29481846 0.32751295
0.35685003 0.29423034 0.32513916
0.38167524 0.29471713 0.3232649
0.40590096 0.29485542 0.32114032
0.43092251 0.29529899 0.31905752
0.45574737 0.29465151 0.31702685
0.48108125 0.29519391 0.31488416
0.50589108 0.29460156 0.31269884
0.53077638 0.29505551 0.31063575
0.55337036 0.29473859 0.30832845
0.061490297 0.31835651 0.35161296
0.082257032 0.31839347 0.35008022
0.1080597 0.31851733 0.34793949
0.13299125 0.31915379 0.3457289
0.15703195 0.31790996 0.34338444
0.18260258 0.31764984 0.34147599
0.20802337 0.31922364 0.33945408
0.23197091 0.31826496 0.33717141
0.25697863 0.31896865 0.33531937
0.28126395 0.31909525 0.33321631
0.30772173 0.31965005 0.33078942
0.33277845 0.31815946 0.3285923
0.35634375 0.31916547 0.32670435
0.38077044 0.31938338 0.32467854
0.40673316 0.31903684 0.32231995
0.43094909 0.31907511 0.32019493
0.45584679 0.31941831 0.31821284
0.48092079 0.31989658 0.31599876
0.50559723 0.31966007 0.31380793
0.53062248 0.31968093 0.31165385
0.5514555 0.31868529 0.30973527
0.062636435 0.34050035 0.3529163
0.08133328 0.34018075 0.35132962
0.10512727 0.34044957 0.34916732
0.13150042 0.34033275 0.34739098
0.15713644 0.34152699 0.3449285
0.18120623 0.3401953 0.3428224
0.20528382 0.33984053 0.34077871
0.23215365 0.34075284 0.33845416
0.25504577 0.33907461 0.33625981
0.28062546 0.3403542 0.33421648
0.30886114 0.33921313 0.33173695
0.33458757 0.33792436 0.32939163
0.35670149 0.34007657 0.32769814
0.38125348 0.33824515 0.32540074
0.40527833 0.33785415 0.32334629
0.43018711 0.3366437 0.32103568
0.45483279 0.33844399 0.31903222
0.48049486 0.33948946 0.31701037
0.50569379 0.33821595 0.31479052
0.53179622 0.33797145 0.31261978
0.55119073 0.33696806 0.31078041
0.069619834 0.45201015 0.36911643
0.086215496 0.45217133 0.36761576
0.10953045 0.45352805 0.36559823
0.13320088 0.45274591 0.36380112
0.1586895 0.45372927 0.36133391
0.18284881 0.45444119 0.35985675
0.20891297 0.45323801 0.35767192
0.22858989 0.45406806 0.35585174
0.2542938 0.45360112 0.35320839
0.28285456 0.4538269 0.35130614
0.30922365 0.45497692 0.34920755
0.33445203 0.45421124 0.3469747
0.35928941 0.45444036 0.34491146
0.38361835 0.45383549 0.34232271
0.40745223 0.45422161 0.34039682
0.43593216 0.45407701 0.33807701
0.45709181 0.45456672 0.33589521
0.4802804 0.45447457 0.33466139
0.50701261 0.45451331 0.33225298
0.53302968 0.45507121 0.32981381
0.54970074 0.4551754 0.32901052
0.067039967 0.47249377 0.37906277
0.08412981 0.47102761 0.37869871
0.10914606 0.47110105 0.37648657
0.13447422 0.47035491 0.37370804
0.15943271 0.47089672 0.37251991
0.18384469 0.47091377 0.37052834
0.20901239 0.47038519 0.36777097
0.23449361 0.47060001 0.36619034
0.25873053 0.47061872 0.36432114
0.28341663 0.47019279 0.36156884
0.30897117 0.47048187 0.35997671
0.3337177 0.47037899 0.35756537
0.35887122 0.47029114 0.35570639
0.38336229 0.47018564 0.35362059
0.40879238 0.47019899 0.35130391
0.43380105 0.46997499 0.34921822
0.45847595 0.47012234 0.34757003
0.48374104 0.47023845 0.34527686
0.50850344 0.47028053 0.34348014
0.53301835 0.47022033 0.34165424
0.55168319 0.47200358 0.33853856
0.068000913 0.49169087 0.38624114
0.082063913 0.48392272 0.3896544
0.1100592 0.48046565 0.3892419
0.1355722 0.48043203 0.38723665
0.16017276 0.48046386 0.38504276
0.18496358 0.48051775 0.3828693
0.21095097 0.48059046 0.38130257
0.2344414 0.48093557 0.37910166
0.26077116 0.48079336 0.37701568
0.28576565 0.48100781 0.37430972
0.31148708 0.48122787 0.37232623
0.33654237 0.48122025 0.36983135
0.36118567 0.48106611 0.36840165
0.38577878 0.48078978 0.36556965
0.40896928 0.48134327 0.36356524
0.4345727 0.48138773 0.36124918
0.4594624 0.48147202 0.35859668
0.48314798 0.48163569 0.35783479
0.50844038 0.48121512 0.3547003
0.53351462 0.48163521 0.35341412
0.55266035 0.49249649 0.34520778
0.068211019 0.51701486 0.38905436
0.084255755 0.5254004 0.38540694
0.1101414 0.5265125 0.38256744
0.13487208 0.52665734 0.38056028
0.15994215 0.52677989 0.37876347
0.18500102 0.52674294 0.37638211
0.20963031 0.52667642 0.37404922
0.23464227 0.52677763 0.37244427
0.25947523 0.52689278 0.37028959
0.28430891 0.52690363 0.36843404
0.30927181 0.52687454 0.36636999
0.33417177 0.52700496 0.36425576
0.35931623 0.52691972 0.36225006
0.38444769 0.52690887 0.3599216
0.40904021 0.52693629 0.35822937
0.4340713 0.52685595 0.35590696
0.45917046 0.52706015 0.35403547
0.48361385 0.5269984 0.35174611
0.50846219 0.52690828 0.3496733
0.53378463 0.52694523 0.34812871
0.55240691 0.51846743 0.34806031
0.069507837 0.5303154 0.39809707
0.085944593 0.53016138 0.3954432
0.11044663 0.53043044 0.39374715
0.13609934 0.53033245 0.39149433
0.16077268 0.53046083 0.38951144
0.18464309 0.53062773 0.38734844
0.21042609 0.53044653 0.38477966
0.23504341 0.53072119 0.38361588
0.25969517 0.53068089 0.38123602
0.28537524 0.53076971 0.37935919
0.31136429 0.53071916 0.37642395
0.33550858 0.5307883 0.3745859
0.35945237 0.53098059 0.37298366
0.38472664 0.53091133 0.37077835
0.41041636 0.53091371 0.36853501
0.43543983 0.53103268 0.36635306
0.46001077 0.53106201 0.36438563
0.48489726 0.53092933 0.36217225
0.50902843 0.53116703 0.360448
0.53401649 0.53111613 0.35766527
0.55244362 0.53085577 0.35626167
0.043272674 0.10084468 0.34484738
0.057143152 0.098260462 0.34409583
0.081860363 0.098352373 0.34216666
0.1073423 0.099132717 0.34004074
0.13248384 0.099645376 0.33808002
0.157345 0.098502338 0.33564842
0.18156242 0.099019408 0.33384293
0.20729339 0.099174559 0.33152148
0.23090243 0.099618793 0.32954076
0.2566942 0.099989057 0.3273952
0.2812829 0.099476814 0.32524851
0.3052001 0.099256992 0.32298771
0.33048153 0.099495947 0.32113945
0.35698903 0.099989712 0.3188073
0.38137174 0.1011169 0.31691587
0.40551341 0.10014015 0.31471005
0.43029845 0.10034168 0.31252795
0.45584989 0.10023141 0.31025222
0.48170912 0.10106468 0.30838785
0.5065459 0.10137403 0.30616137
0.52954793 0.10124427 0.30415609
0.55435169 0.10153753 0.30211321
0.56911659 0.10082567 0.30105239
0.043952584 0.11971289 0.34967431
0.058214605 0.11859238 0.34813014
0.082883656 0.1183551 0.34627643
0.1071009 0.11845231 0.3442246
0.13156372 0.11864412 0.34209809
0.15625781 0.11958075 0.34018764
0.1818096 0.11865568 0.33797848
0.20709836 0.11874384 0.33567482
0.23266625 0.11934936 0.33388662
0.25716996 0.11926514 0.33156782
0.28190756 0.11926043 0.32942733
0.30689716 0.11900777 0.32733217
0.33216763 0.11832601 0.32502189
0.35645902 0.11932969 0.32311657
0.38127136 0.11974651 0.32100436
0.40669763 0.11893189 0.3188082
0.43113875 0.11939013 0.31667086
0.45574594 0.11902034 0.3145054
0.48157358 0.11867881 0.31230548
0.50610459 0.11981308 0.31030497
0.53109205 0.1195159 0.30817124
0.55567431 0.11923677 0.30594313
0.56907356 0.12132943 0.30466235
0.043338537 0.13203889 0.34893918
0.0586164 0.14287257 0.35165232
0.083041608 0.14314985 0.35005584
0.10751426 0.1430431 0.34781137
0.13209814 0.14285517 0.34569159
0.15708131 0.14355928 0.34372124
0.18132377 0.1434114 0.34154645
0.20635372 0.14310932 0.33940265
0.23193169 0.14334255 0.33735305
0.25737715 0.14340401 0.33507931
0.28185916 0.14401662 0.3331475
0.30756748 0.14365345 0.33093348
0.33225536 0.1437189 0.32876447
0.35718107 0.14346582 0.32664451
0.38242531 0.14429694 0.3245624
0.40745687 0.14375567 0.32240885
0.43079042 0.14360291 0.32032934
0.45600271 0.14382964 0.31816146
0.48147511 0.14369017 0.31607637
0.50610948 0.14447099 0.31389806
0.53126073 0.14408571 0.31184152
0.55560172 0.14399546 0.30975854
0.56999838 0.14360136 0.30760273
0.060265005 0.16689467 0.35478988
0.084105074 0.16557276 0.352474
0.10860437 0.16696227 0.35069138
0.13349092 0.16593534 0.34841526
0.15773773 0.16697615 0.34637466
0.18189591 0.16676944 0.34435925
0.20720929 0.16663784 0.34205732
0.23198926 0.16652197 0.3400242
0.25715852 0.16620535 0.33787546
0.28246093 0.16714036 0.33556542
0.30657804 0.16680908 0.33353406
0.33263814 0.16790074 0.33146361
0.35766006 0.16628307 0.32912931
0.3821764 0.16686535 0.32705367
0.40725303 0.16743439 0.32499674
0.4319489 0.16679454 0.32269597
0.45617926 0.1665436 0.32065254
0.48228645 0.16750282 0.31855011
0.50721955 0.16696692 0.31626719
0.53118622 0.16715384 0.31419036
0.55544889 0.16735512 0.3121919
0.5703752 0.16144162 0.30950183
0.058594525 0.18887275 0.35671547
0.085472763 0.18841624 0.3542015
0.1085729 0.18792909 0.35203573
0.13307214 0.18762714 0.35006493
0.15822822 0.1862464 0.34770992
0.18266791 0.18769497 0.34576494
0.20936346 0.18682992 0.34352615
0.23359549 0.18702602 0.34124148
0.25551975 0.18632102 0.33934721
0.28029823 0.18673164 0.33727297
0.30603039 0.18600512 0.3348918
0.33323979 0.18612581 0.33252063
0.35749865 0.18533581 0.33025542
0.38357782 0.18516099 0.32811293
0.40772462 0.18430901 0.32593718
0.43320751 0.18419701 0.32385841
0.45192814 0.18493474 0.32211635
0.47980261 0.18438989 0.31974414
0.50585127 0.18455219 0.31742004
0.53392351 0.18410027 0.31503898
0.55196571 0.1849097 0.31359017
0.070132613 0.47539067 0.39962539
0.085965335 0.47597682 0.39767444
0.11127746 0.47587609 0.39570877
0.13590705 0.4758867 0.39313632
0.15980548 0.47639668 0.3920618
0.18552649 0.47627282 0.39014378
0.21321416 0.47625613 0.38689214
0.23632598 0.476125 0.38474846
0.26104093 0.47638452 0.38303646
0.28601003 0.47639465 0.38078251
0.30924642 0.47649133 0.37953055
0.33683276 0.47640586 0.37625465
0.35946059 0.47666371 0.37454763
0.38563323 0.47634006 0.37232226
0.40907204 0.47668815 0.37028006
0.43531048 0.47646153 0.36835751
0.46193433 0.47685623 0.36570376
0.48612237 0.47681892 0.36388397
0.5085938 0.47654295 0.36177281
0.53594184 0.47707915 0.35940012
0.55169821 0.47670937 0.35940686
0.069850504 0.48954129 0.41007927
0.085952222 0.48326147 0.40859851
0.11191577 0.48261893 0.40645713
0.13713342 0.48265219 0.40496704
0.16180474 0.48269069 0.40246004
0.18661427 0.48265529 0.4000822
0.21134979 0.48248744 0.39781407
0.23611557 0.48254502 0.3964068
0.26091194 0.48252642 0.39348117
0.2863493 0.48263621 0.39174423
0.31159437 0.48263085 0.38992321
0.33614671 0.4825927 0.38767067
0.36126113 0.48264456 0.38548496
0.3862561 0.48256958 0.38314751
0.41104519 0.48273563 0.38149634
0.4359827 0.48253989 0.37891635
0.46100712 0.48274004 0.37715423
0.48581302 0.48256338 0.37483779
0.51073658 0.48257625 0.37284231
0.53537583 0.482638 0.37121525
0.5543052 0.48969305 0.36917952
0.07020402 0.51327693 0.41388637
0.076270819 0.51501667 0.41345736
0.1934368 0.52722287 0.39301601
0.2128756 0.52735794 0.39187005
0.33812058 0.52753127 0.38086015
0.47658491 0.52783132 0.36922589
0.55487394 0.51383758 0.37253782
0.070505679 0.5291816 0.41678554
0.087721765 0.53016675 0.41518024
0.11264694 0.53021789 0.41289651
0.13746083 0.53025317 0.4105275
0.16253537 0.53036368 0.40873957
0.18791097 0.5303812 0.4069083
0.21241844 0.53049397 0.40495884
0.23738039 0.5304724 0.40293479
0.26226246 0.53057361 0.40026596
0.28717446 0.53059232 0.39884734
0.31218886 0.53060687 0.39662218
0.33653879 0.53068876 0.39411548
0.36158419 0.53070712 0.39196372
0.38687992 0.53066123 0.39014804
0.41141427 0.53083837 0.38812563
0.4361099 0.5307411 0.38604239
0.46117723 0.53090382 0.38302216
0.48621929 0.53081644 0.38145846
0.51060808 0.53087282 0.37955397
0.53580117 0.53083396 0.37724933
0.55406225 0.53004885 0.37621424
0.072189033 0.48853338 0.43520197
0.088190019 0.48430383 0.43344375
0.11375654 0.48385227 0.43094084
0.13914382 0.48392701 0.42899612
0.16384196 0.48393035 0.42739525
0.1882056 0.48384511 0.42462406
0.2134397 0.48396218 0.42286047
0.23837888 0.48410964 0.42086849
0.26368356 0.48396063 0.41860542
0.28855145 0.48397434 0.41696152
0.31370521 0.48405516 0.41476834
0.3383801 0.48413754 0.4125382
0.36313975 0.48414505 0.41031441
0.38806701 0.48412788 0.40841824
0.41278589 0.48426044 0.40596235
0.43788123 0.48416638 0.40384799
0.4629221 0.48425364 0.40242359
0.48787439 0.48421204 0.3992281
0.51279032 0.48424149 0.3978211
0.53801119 0.4842881 0.39583266
0.55615795 0.48969173 0.39412472
0.072281063 0.50971782 0.43862662
0.077966809 0.50964952 0.43672708
0.55687034 0.51018107 0.39755034
0.072670162 0.52760828 0.44142115
0.08932656 0.52934885 0.43960544
0.11443257 0.52946925 0.43713364
0.13940454 0.52950871 0.4354147
0.16435158 0.52953231 0.43384162
0.18910205 0.52957523 0.43166482
0.21413708 0.52963412 0.42883161
0.23924685 0.52974558 0.42749074
0.26417482 0.5297308 0.42520788
0.28922892 0.52974176 0.42286685
0.31438446 0.52984655 0.42103022
0.33934951 0.52985466 0.41872367
0.36373484 0.52992535 0.41687438
0.38853228 0.53000128 0.41495854
0.41406775 0.52999222 0.41204378
0.43863237 0.53005564 0.41015682
0.46357286 0.53006887 0.40867022
0.48830211 0.53004742 0.40621448
0.51302016 0.5301038 0.40387401
0.53788388 0.53015137 0.40196833
0.55640817 0.52823436 0.40085664
0.074254632 0.48660541 0.45982361
0.090575278 0.48385835 0.45897353
0.11590272 0.48356128 0.45614102
0.14076805 0.48369372 0.45397153
0.16620564 0.48366714 0.45219931
0.19144952 0.48374665 0.44992629
0.21591067 0.48384619 0.44833818
0.24080551 0.48385859 0.44618705
0.26578069 0.48383021 0.44338998
0.29059267 0.48395908 0.44179314
0.3161552 0.48386323 0.43930158
0.34133482 0.48395884 0.43775126
0.36524701 0.48390245 0.43504393
0.39028943 0.48396969 0.43329781
0.41539192 0.48405492 0.43197289
0.44016457 0.48404741 0.42915669
0.4649024 0.48397529 0.42702711
0.489923 0.48411596 0.42479351
0.51485395 0.48414016 0.42254511
0.53943729 0.48406863 0.42090347
0.55798626 0.48745489 0.41983613
0.074182034 0.50584507 0.46295291
0.079773545 0.50531578 0.45984572
0.55880952 0.50679719 0.42238054
0.074867845 0.52486253 0.46657297
0.091068327 0.52786767 0.46495542
0.11644781 0.52815211 0.46261576
0.14170116 0.52819502 0.46091008
0.1664077 0.52823627 0.45875195
0.19150758 0.52825618 0.45644498
0.21641779 0.5283649 0.45422205
0.24121332 0.52848744 0.45213902
0.26668823 0.52838504 0.45050913
0.29125667 0.52853394 0.44771802
0.31591153 0.52857983 0.4461033
0.34091806 0.5285846 0.44359788
0.36615014 0.52864325 0.44181156
0.39088583 0.52869833 0.43973085
0.41508186 0.528705 0.43729028
0.44069302 0.52871311 0.43568221
0.46564329 0.52871609 0.43365046
0.49046767 0.52881932 0.4313319
0.5156728 0.52885747 0.42921129
0.54061425 0.52886319 0.42741391
0.55883503 0.52618921 0.42566696
0.076431334 0.48569453 0.48444983
0.092769146 0.48471391 0.48399213
0.11811173 0.48461008 0.4814575
0.14327073 0.48462927 0.47958156
0.16758746 0.48470747 0.47777936
0.19298726 0.48470879 0.47556773
0.21801245 0.48465621 0.4735494
0.24258482 0.4846468 0.47092745
0.2673173 0.48467827 0.4688431
0.29286039 0.48473501 0.46736956
0.31747723 0.48463547 0.46446544
0.34230721 0.48477697 0.46303108
0.36728024 0.48472667 0.46081918
0.39249575 0.48465371 0.45806074
0.41791558 0.48475516 0.45687214
0.44232929 0.48461401 0.45417953
0.46689284 0.48472714 0.45223761
0.49182963 0.48472607 0.44996545
0.51689482 0.48479569 0.44840702
0.54137635 0.4846319 0.44589597
0.55990446 0.48619175 0.44380721
0.076172292 0.50240922 0.48731247
0.081999063 0.5015775 0.4845725
0.2141571 0.48893785 0.48600599
0.26782417 0.48910701 0.4809511
0.29223621 0.48929334 0.47912022
0.32434058 0.48918188 0.47551385
0.34725559 0.48940063 0.47485247
0.37464082 0.49007726 0.47307518
0.39431691 0.48971176 0.4696826
0.41502666 0.48951638 0.46786928
0.43275249 0.48989642 0.46444565
0.46647131 0.49007499 0.46294692
0.494012 0.4904021 0.46131381
0.52083611 0.48993623 0.45926049
0.53836668 0.490134 0.45879576
0.56073809 0.50305009 0.44690767
0.076566696 0.52273417 0.49091122
0.093464494 0.52655125 0.48961195
0.1188345 0.52681518 0.48819044
0.14413524 0.52692521 0.48551735
0.16869646 0.52696764 0.48402235
0.19340736 0.52697194 0.48167458
0.21824396 0.5270046 0.48014501
0.24313951 0.52705836 0.47712776
0.26805043 0.52714872 0.47528097
0.29332089 0.52720785 0.47350708
0.31841159 0.5271616 0.47090027
0.3430078 0.52727473 0.46879429
0.3680414 0.52733147 0.46713546
0.39295459 0.52729559 0.46444005
0.41793811 0.52735138 0.46306694
0.44316292 0.52743554 0.46095785
0.46766341 0.52746093 0.45866191
0.49226654 0.52751541 0.45643356
0.51764917 0.52746427 0.45490077
0.5426451 0.52754259 0.452171
0.56085503 0.52358961 0.44999519
0.077988684 0.48553061 0.50365567
0.095543385 0.48579705 0.50281084
0.12016553 0.48551345 0.50138712
0.14490753 0.48565102 0.4986718
0.17001724 0.48539507 0.49671283
0.19493711 0.48555875 0.49481782
0.2199862 0.48560464 0.49238184
0.24508703 0.48565924 0.49022552
0.26992202 0.48553538 0.48832449
0.29437745 0.4856137 0.48612812
0.31985545 0.48570335 0.48344013
0.34420967 0.48579216 0.48198041
0.36814094 0.4857446 0.47959295
0.39362228 0.48578262 0.47792593
0.41947711 0.48590469 0.47628811
0.44405353 0.48600507 0.47381631
0.46916831 0.48570061 0.47200558
0.49410439 0.48594427 0.47014004
0.51829326 0.48595726 0.46781009
0.54352057 0.4859643 0.46529132
0.56145775 0.48641932 0.46347705
0.078393817 0.49825025 0.51252282
0.09494257 0.49107695 0.5127821
0.12088031 0.48990417 0.51026869
0.14550221 0.48986197 0.5086031
0.17114347 0.48998451 0.50628066
0.19548422 0.48996818 0.50448883
0.22058487 0.48993766 0.50233436
0.24530733 0.48992074 0.50015008
0.27019882 0.49007356 0.49845174
0.29502082 0.49000609 0.49625
0.32018888 0.48991275 0.4943926
0.34479678 0.49007273 0.49220362
0.37008464 0.49001801 0.49016109
0.39531708 0.49001086 0.48818073
0.42003 0.4901588 0.48629078
0.4447068 0.49025214 0.48430875
0.46969306 0.49001849 0.48152539
0.49452293 0.49038649 0.48074332
0.51909494 0.4900645 0.47807214
0.54410529 0.49025416 0.4762055
0.56278241 0.49921346 0.47137865
0.079006374 0.52073264 0.51658416
0.095360994 0.52549171 0.51492774
0.12111193 0.52579355 0.51257598
0.14585352 0.52588403 0.51092553
0.17078471 0.52594697 0.50859272
0.19548607 0.52601421 0.50624073
0.22052503 0.52604544 0.5045377
0.24542665 0.52609563 0.50257349
0.27016473 0.52616215 0.50045478
0.29537857 0.52614689 0.49828926
0.32036698 0.5262903 0.49573532
0.34559751 0.5262835 0.4938561
0.37059021 0.52633429 0.49233946
0.39474404 0.52636528 0.49030295
0.41997278 0.52638626 0.48778978
0.44526863 0.52639019 0.48555979
0.46980798 0.52642989 0.48367652
0.49449599 0.52649748 0.48171726
0.5190239 0.52650428 0.47963884
0.5441891 0.52652335 0.47712371
0.56265819 0.52180827 0.47509924
0.080367148 0.49869776 0.53662825
0.097259581 0.49524939 0.53567445
0.12274426 0.49483073 0.5335319
0.14767706 0.49491119 0.53158545
0.17246771 0.49497187 0.5298233
0.19759345 0.49488115 0.52747321
0.22246361 0.49500215 0.52556872
0.24746299 0.49492979 0.52354038
0.27232385 0.49495399 0.52132607
0.29700041 0.4949528 0.51922703
0.32211304 0.49498653 0.51708364
0.34718394 0.49488842 0.51476395
0.37225115 0.49505758 0.51299083
0.39688897 0.49488258 0.51059234
0.42130697 0.49487472 0.50872123
0.44657254 0.49492979 0.50653148
0.47167933 0.49498212 0.50476682
0.49654078 0.49474227 0.50206435
0.52163255 0.49497998 0.50065291
0.54649711 0.4949795 0.4982405
0.56438613 0.49939656 0.49602446
0.080958128 0.52005792 0.54216576
0.097470343 0.5264833 0.53972435
0.12297124 0.52727914 0.5369029
0.14754248 0.52728152 0.53584611
0.17244989 0.52742696 0.53342986
0.19753563 0.52736533 0.53129125
0.22242475 0.52738059 0.52900636
0.2475332 0.52738523 0.52726066
0.27231431 0.52735639 0.52461791
0.29715335 0.52746701 0.52267873
0.32237029 0.52751303 0.52089167
0.34739685 0.5273999 0.51832402
0.37221944 0.52750635 0.51679027
0.39705884 0.52744305 0.51477635
0.42176712 0.52759659 0.51247895
0.44675529 0.52758718 0.51021349
0.47180796 0.52756131 0.50855744
0.49717379 0.52760792 0.50645578
0.52173722 0.5274632 0.50402606
0.54661059 0.52757001 0.5019908
0.56487858 0.52076209 0.50045228
0.082065523 0.53189778 0.55282664
0.099652112 0.53202379 0.55138612
0.12448984 0.53195834 0.54970729
0.14975214 0.53205121 0.54690468
0.17507029 0.53216875 0.54470789
0.19870281 0.53214002 0.54319036
0.22724342 0.53270054 0.54077518
0.25000906 0.53253615 0.53839242
0.27571046 0.53245151 0.53581083
0.29890466 0.53275561 0.53457797
0.32320213 0.53277326 0.53227878
0.34877205 0.53309846 0.53035128
0.37225664 0.53298795 0.52795279
0.39745867 0.53293884 0.52609479
0.42127931 0.53292 0.52299476
0.44814026 0.53306961 0.5211395
0.47433043 0.53306866 0.519153
0.50067687 0.53339767 0.51646507
0.52465105 0.53339815 0.51457882
0.54749441 0.5332135 0.51190627
0.56442845 0.53339601 0.51064074
0.08219403 0.50149965 0.55794656
0.099493802 0.50052691 0.55685782
0.12450397 0.50071859 0.55494297
0.1492793 0.50068092 0.55279696
0.1743499 0.50059462 0.55086386
0.19973731 0.50075686 0.54897904
0.22426128 0.5007019 0.54719007
0.24854839 0.50066698 0.54536355
0.27352524 0.50085425 0.54298568
0.29884279 0.5007664 0.54089808
0.32417774 0.50052893 0.53865469
0.34872639 0.50072372 0.53643394
0.37331784 0.50068557 0.53463638
0.39844191 0.50058496 0.53253472
0.42380238 0.50082994 0.53047144
0.44836593 0.50079036 0.52863872
0.47318876 0.5007062 0.5267731
0.49803817 0.50057459 0.52407968
0.52332711 0.50088441 0.52246773
0.54797673 0.50080085 0.52025008
0.56586754 0.50204444 0.5185889
0.082636714 0.51651919 0.5654341
0.099477053 0.51253259 0.56594217
0.12564385 0.51198077 0.56347084
0.14995307 0.51170528 0.56207085
0.17486292 0.51145434 0.55988979
0.19917089 0.51239014 0.55714405
0.22453678 0.51165855 0.55531561
0.24973273 0.51207829 0.5535239
0.27460027 0.51305509 0.55094004
0.29966378 0.51273441 0.54859197
0.32431722 0.51262915 0.54679406
0.34905112 0.51268864 0.54444456
0.37393677 0.51232016 0.54259324
0.39940131 0.51259828 0.54068077
0.42430878 0.51300466 0.53844631
0.44902205 0.51342368 0.53633046
0.4739846 0.51350069 0.53376758
0.49940801 0.51351392 0.53161466
0.52408266 0.51371384 0.52968454
0.54882622 0.51321268 0.52776885
0.56697631 0.517802 0.52491355
0.083734035 0.53324544 0.57100272
0.1004107 0.53438818 0.56773734
0.12548387 0.53434086 0.56570423
0.150181 0.53445148 0.5635674
0.17496186 0.53442192 0.56183279
0.20008045 0.53446138 0.55928433
0.22487879 0.53437173 0.5569104
0.24973631 0.53446865 0.55530012
0.27485406 0.53435898 0.55284715
0.29991674 0.53451931 0.5514096
0.32505989 0.53447556 0.54885042
0.34989381 0.5345726 0.547171
0.37453306 0.53447354 0.54458427
0.39926314 0.5344739 0.54250801
0.42423725 0.53450525 0.54066718
0.44941926 0.53461266 0.53851616
0.47420323 0.53464139 0.53663814
0.49917614 0.5345372 0.53425479
0.52415419 0.53452098 0.5323596
0.54866982 0.53450966 0.5299263
0.56708741 0.53421569 0.53011596
0.11034191 0.50202894 0.57472467
0.16053939 0.50234735 0.56993794
0.17257059 0.50218844 0.56839299
0.19843328 0.50207281 0.56687057
0.28469288 0.5021075 0.55917943
0.3459971 0.50260055 0.55500853
0.42924643 0.50263739 0.54757297
0.44241548 0.50290787 0.54585731
0.51081038 0.50266564 0.54028749
0.084567904 0.51622713 0.58870709
0.10184097 0.51326811 0.58859348
0.12680435 0.51311481 0.58669829
0.15153408 0.51286829 0.58412349
0.1766147 0.51303983 0.58253825
0.20186043 0.51297724 0.58009481
0.22698498 0.51313281 0.57812786
0.25181186 0.51298261 0.57614887
0.2768687 0.51310062 0.57390332
0.3019222 0.51312983 0.57184052
0.32717299 0.51280844 0.56948709
0.35184503 0.51314843 0.56779456
0.37638319 0.51308668 0.56543982
0.40105093 0.51297724 0.56356144
0.42584383 0.51305425 0.56160522
0.45126247 0.51296508 0.55934882
0.47609758 0.51307034 0.55721045
0.50086057 0.5126847 0.55479109
0.52613354 0.51294458 0.55280137
0.55079222 0.51303005 0.55092907
0.56853366 0.51705182 0.54825711
0.085391581 0.53637135 0.59483123
0.10218358 0.54166102 0.59271538
0.12728596 0.54199553 0.59038532
0.15229034 0.54207623 0.58852935
0.17718142 0.54208302 0.58614695
0.20220882 0.54208922 0.58423507
0.22715628 0.54198706 0.58204877
0.25175023 0.54203212 0.57987404
0.27678072 0.54189754 0.57741857
0.30220306 0.54191875 0.57557535
0.32703567 0.54195845 0.57334447
0.3518976 0.54190302 0.57164919
0.37651265 0.54180729 0.56880569
0.40143514 0.54177952 0.56700265
0.42632604 0.54210353 0.56531692
0.45125246 0.54187775 0.56306243
0.47615016 0.54192722 0.5607183
0.50076234 0.54188943 0.55890977
0.5258038 0.54181767 0.556494
0.55086851 0.54195249 0.55468953
0.56919265 0.53721797 0.55365694
0.088543773 0.54904974 0.60532367
0.10180289 0.54907954 0.60514665
0.12915665 0.54984057 0.60234392
0.15209657 0.54955673 0.60057545
0.17404932 0.54909611 0.59834266
0.20812964 0.54952335 0.59609127
0.22633135 0.54972708 0.59452248
0.25342143 0.54979205 0.59159851
0.27856529 0.5499332 0.59005105
0.30361128 0.54983914 0.58700716
0.32617378 0.54990625 0.58624256
0.35570002 0.54993188 0.58288598
0.37921369 0.55000377 0.58032906
0.40260935 0.55027986 0.57802582
0.42813146 0.55046058 0.57632387
0.45209575 0.55100441 0.57482266
0.47723126 0.55075002 0.57294965
0.49989629 0.5507946 0.57076275
0.52659893 0.55114782 0.56772208
0.55088842 0.55163991 0.56724048
0.57082307 0.55085337 0.5659318
0.086378276 0.51972497 0.60877967
0.10352647 0.51958311 0.60784638
0.12813634 0.51942682 0.606287
0.15348893 0.51913142 0.60384226
0.17851245 0.5193398 0.60182488
0.20355546 0.51951373 0.59960902
0.22871113 0.51935673 0.59757411
0.25327051 0.5195384 0.59586704
0.27818763 0.5193212 0.59398353
0.30250406 0.51941824 0.59185147
0.32743776 0.5195595 0.58982527
0.35374379 0.51948154 0.58774555
0.37864566 0.51925504 0.58565748
0.40321887 0.51932383 0.5836401
0.42827547 0.51930547 0.58117747
0.45275009 0.51935673 0.57934916
0.47829711 0.51939046 0.57732713
0.50199199 0.5194999 0.57502306
0.52721167 0.51951683 0.57341123
0.55221009 0.51923513 0.5707674
0.56993055 0.5199405 0.56838572
0.087002873 0.53435695 0.61775458
0.10351396 0.53079247 0.61757267
0.12952864 0.52974975 0.61582839
0.15434778 0.53015029 0.61331093
0.17941147 0.53039312 0.61148548
0.20423937 0.53059661 0.60918009
0.22882187 0.53031325 0.60700047
0.25397313 0.53019965 0.60512137
0.27887213 0.53089118 0.60238028
0.30384898 0.53130794 0.60076797
0.32867169 0.53152096 0.59832895
0.35318911 0.53126562 0.59630132
0.37824523 0.53111506 0.59393311
0.40334892 0.53182995 0.59205115
0.42826819 0.5311023 0.59006107
0.45322728 0.53161883 0.58806014
0.47800577 0.53127623 0.58554089
0.50305903 0.53153265 0.58339608
0.52818918 0.53185642 0.58165658
0.55308247 0.53226542 0.57946086
0.57110107 0.5356977 0.57717025
0.088115871 0.55110598 0.6237973
0.10474116 0.55240715 0.6210103
0.12935627 0.55231845 0.61835909
0.15431631 0.55237913 0.6165067
0.17950338 0.55252886 0.61458337
0.20452809 0.5525769 0.61269164
0.22972548 0.55249345 0.61031866
0.25462806 0.5525614 0.60839152
0.27946615 0.55265033 0.60649955
0.30446041 0.55269241 0.60457146
0.32936525 0.55267072 0.60247386
0.35450637 0.55258751 0.60022295
0.37915218 0.55276883 0.59813046
0.40434229 0.55270076 0.59614158
0.42920661 0.55276644 0.59427369
0.45406103 0.55281973 0.59220743
0.47868419 0.55287111 0.59041131
0.50376213 0.55291224 0.58833933
0.52841187 0.55266225 0.58579433
0.5532577 0.55277658 0.5838387
0.57134044 0.55245543 0.58387136
0.088750899 0.5369103 0.6410656
0.10624135 0.53487086 0.6403209
0.13175547 0.53504157 0.6385113
0.15617418 0.5350548 0.63655949
0.18120474 0.53492928 0.63434112
0.20628208 0.53498375 0.63215315
0.23131025 0.53508174 0.63031256
0.25604928 0.53508759 0.62834394
0.28075254 0.53509605 0.62615383
0.30620444 0.53505659 0.62399209
0.33113229 0.5350554 0.62207663
0.35571122 0.53494072 0.61975205
0.38083291 0.53511536 0.61787462
0.40528798 0.53503799 0.61574829
0.43030238 0.53514206 0.61399925
0.45538867 0.53512943 0.61183667
0.48049796 0.53504312 0.60924339
0.50537097 0.53501821 0.60758686
0.53021693 0.53507733 0.60556996
0.55500984 0.53510141 0.60329819
0.57271218 0.536708 0.600649
0.089695394 0.5526247 0.64663076
0.10677904 0.55487549 0.64696348
0.13189405 0.55517089 0.64466858
0.15705067 0.5555656 0.64237928
0.18182683 0.55530214 0.64042294
0.20685297 0.5553627 0.63861156
0.23178566 0.555426 0.63631022
0.25670981 0.55556929 0.63411093
0.2816112 0.55560958 0.63208294
0.30630589 0.55576003 0.63050497
0.33113921 0.5559541 0.62775767
0.35606909 0.555879 0.62590134
0.38107681 0.55600572 0.62386215
0.40582681 0.55612373 0.62182498
0.43103611 0.55610561 0.61949611
0.4560492 0.55630088 0.6174649
0.48054302 0.55593538 0.6156143
0.5053525 0.55622375 0.61304545
0.53074312 0.55630958 0.61094725
0.55519116 0.55627859 0.60887873
0.57324922 0.55356872 0.60596669
0.090605915 0.53922641 0.65902412
0.10632175 0.53933823 0.65789187
0.13358074 0.53931856 0.65558982
0.15821069 0.53878939 0.65294278
0.18367779 0.5394237 0.65076864
0.20755637 0.53897035 0.64883041
0.23353875 0.5394057 0.64660597
0.25809455 0.53989697 0.64501262
