# .PCD v0.7 - Point Cloud Data file format
VERSION 0.7
FIELDS x y z
SIZE 4 4 4
TYPE F F F
COUNT 1 1 1
WIDTH 1458
HEIGHT 1
VIEWPOINT 0 0 0 1 0 0 0
POINTS 1458
DATA ascii
-0.039177269 2.2417228 0.33710361
-0.056672931 2.2419152 0.33489311
-0.45032474 2.3964343 0.33493102
-0.46514124 2.4074361 0.33797389
-0.48609912 2.4147463 0.33689177
-0.50108182 2.4159074 0.34956425
-0.0082749128 2.2096879 0.33550811
-0.023478895 2.2094028 0.33712852
-0.054330915 2.2199612 0.33827358
-0.062868655 2.2259247 0.33832562
-0.45356864 2.3821986 0.33708882
-0.47012106 2.3820984 0.33719838
-0.49789771 2.3940713 0.33675599
-0.50614357 2.4021487 0.33614653
-0.033412874 2.1965806 0.33543891
-0.051672578 2.2034922 0.33722556
-0.065138161 2.2121375 0.32760423
-0.46154994 2.365298 0.33337808
-0.4806006 2.3702908 0.33397925
-0.49600655 2.3766212 0.3366788
-0.16782793 1.7461298 0.3372944
-0.18131535 1.756616 0.33648747
-0.20403466 1.7661378 0.3371439
-0.21943137 1.7668389 0.3389523
-0.6093173 1.9199127 0.33897716
-0.62666768 1.9291987 0.33710229
-0.64775437 1.9382906 0.33618277
-0.66358292 1.9410127 0.34234536
-0.1707035 1.7333678 0.33809537
-0.18819161 1.732496 0.33710521
-0.21191333 1.7373871 0.33688813
-0.2249912 1.7516562 0.33648992
-0.61850679 1.9016986 0.33569139
-0.63528728 1.9038197 0.3362729
-0.6573633 1.9148929 0.33691353
-0.66794491 1.9306535 0.33461463
-0.19816092 1.7212107 0.33757114
-0.20833814 1.7254404 0.33544254
-0.64224422 1.8941275 0.33834255
-0.65330744 1.8995494 0.33324647
-0.0063936114 2.2214408 0.36401135
-0.019158483 2.2328804 0.36327612
-0.039963067 2.2419605 0.36379743
-0.056796491 2.242362 0.36466461
-0.45027393 2.3949335 0.36177236
-0.46415699 2.4070556 0.36339438
-0.48566127 2.4149237 0.3639217
-0.0098973513 2.2087221 0.36439568
-0.023548454 2.2103763 0.36255461
-0.054497242 2.2207358 0.36517912
-0.062775403 2.2285781 0.36477745
-0.45297199 2.3815184 0.36294085
-0.47007379 2.38345 0.36271417
-0.49724737 2.3940554 0.36328447
-0.50472307 2.4067228 0.36522633
-0.033590615 2.197156 0.36468232
-0.050587416 2.2030888 0.36256135
-0.064993441 2.2115901 0.36839068
-0.4606415 2.3645916 0.36019331
-0.48105007 2.3708472 0.36234438
-0.4952929 2.3762481 0.36398435
-0.16652268 1.7473452 0.36452377
-0.18042409 1.7563131 0.36372668
-0.20254965 1.766258 0.36316633
-0.21912988 1.7666845 0.36401159
-0.61005569 1.9232831 0.36622691
-0.62748593 1.9298085 0.36320674
-0.6481967 1.9388013 0.36389875
-0.66713423 1.9358912 0.35223931
-0.17005856 1.7331185 0.36587721
-0.18869746 1.732159 0.36373639
-0.21242228 1.7379811 0.36393583
-0.22512299 1.7507645 0.36263227
-0.61843753 1.9028624 0.36213362
-0.63397002 1.904428 0.36340928
-0.65693903 1.9137301 0.36403793
-0.6681605 1.9306126 0.3604632
-0.19645455 1.7206249 0.36319083
-0.20973407 1.7266002 0.3615467
-0.64242208 1.8947433 0.36533219
-0.65352577 1.8999727 0.36508948
-0.0059621334 2.222518 0.39013278
-0.018928647 2.2323737 0.39076138
-0.039606065 2.2417943 0.39076978
-0.055966854 2.2423639 0.38778383
-0.45044804 2.3955903 0.38807452
-0.46513394 2.4067228 0.38971281
-0.48670465 2.414834 0.3905049
-0.50212717 2.411643 0.39784002
-0.0091756582 2.2097788 0.3882274
-0.022593617 2.2093782 0.39066726
-0.053121179 2.2192256 0.39072692
-0.063394308 2.2283471 0.39211947
-0.45382753 2.3800409 0.38827753
-0.47050953 2.3824296 0.39203399
-0.49754038 2.3945155 0.39027172
-0.50566858 2.4051125 0.39238906
-0.034267873 2.1972392 0.3918041
-0.051432431 2.2033222 0.39017653
-0.065186799 2.2125008 0.38692272
-0.46196356 2.3654084 0.38661289
-0.48161608 2.3710947 0.38948679
-0.49627951 2.377027 0.39045286
-0.16623205 1.745536 0.39260381
-0.18105228 1.7561615 0.39067459
-0.20270592 1.7661194 0.38960701
-0.21966156 1.7671314 0.39069122
-0.60893172 1.9225798 0.39100516
-0.627931 1.9289623 0.38953447
-0.647614 1.9387345 0.39152831
-0.66304624 1.9417886 0.38729507
-0.17151982 1.7346711 0.39127916
-0.18805787 1.7321217 0.38975519
-0.21261291 1.7379744 0.39011294
-0.22426245 1.7521358 0.38909703
-0.61936939 1.9009981 0.38759202
-0.63486296 1.9039391 0.39070058
-0.65710074 1.9143842 0.38999307
-0.66786724 1.9312919 0.39231479
-0.19811946 1.721922 0.39419895
-0.20923331 1.7262961 0.39096653
-0.64254463 1.8949223 0.39292699
-0.653629 1.8996896 0.38877332
-0.006293118 2.2200027 0.41484684
-0.017908543 2.2320902 0.41822225
-0.039106607 2.241291 0.41703457
-0.057233721 2.2414279 0.41599804
-0.45027116 2.3959246 0.41703498
-0.46513912 2.4079392 0.41788018
-0.48649007 2.4141161 0.41726434
-0.50200224 2.4118371 0.42809522
-0.0094435215 2.2078674 0.41515839
-0.022331238 2.2095606 0.41755497
-0.053249121 2.2194493 0.41703641
-0.063257873 2.2273507 0.41671491
-0.45302773 2.3807137 0.4170773
-0.47021216 2.3826859 0.41821486
-0.49805871 2.3929195 0.41624594
-0.50550169 2.4038372 0.41779953
-0.034157038 2.1969988 0.4176836
-0.051974744 2.2035544 0.4172858
-0.065315783 2.2118042 0.41908467
-0.4628191 2.3666551 0.41580307
-0.48165691 2.3708205 0.41715598
-0.4961718 2.3767354 0.41710329
-0.16513804 1.7492523 0.41794318
-0.17985035 1.7555501 0.41658133
-0.2039112 1.7663938 0.41770893
-0.21832667 1.7674172 0.41554499
-0.60941833 1.9212066 0.41519547
-0.62752903 1.9302107 0.41690046
-0.6482569 1.9387313 0.41836846
-0.66333848 1.9395722 0.42039502
-0.17024973 1.7342505 0.4175989
-0.18799789 1.7324014 0.41688371
-0.21236123 1.7377663 0.41643244
-0.22468886 1.7523166 0.41672301
-0.61783379 1.9030075 0.41558015
-0.63436735 1.9043286 0.41731137
-0.6571722 1.9142276 0.4167825
-0.66860265 1.929044 0.41946733
-0.19830132 1.7218751 0.4173308
-0.21087126 1.7272022 0.41924512
-0.64308244 1.8952249 0.41569006
-0.6542964 1.9001628 0.41486478
-0.0071407259 2.2209287 0.44616479
-0.019003868 2.2324772 0.44472319
-0.039431483 2.2417858 0.4430005
-0.055737406 2.243784 0.44058174
-0.4498893 2.3954597 0.44374412
-0.4642309 2.4073021 0.44412512
-0.48603898 2.4145072 0.44410551
-0.0096893907 2.2082725 0.44585508
-0.023366719 2.2095647 0.44369149
-0.053745836 2.2206283 0.44317925
-0.063059539 2.2289476 0.44245833
-0.45374557 2.3810599 0.44379151
-0.4690752 2.3832684 0.44339615
-0.49710613 2.3937662 0.44352967
-0.50691843 2.4038193 0.44635266
-0.033725739 2.1971002 0.44438952
-0.052489877 2.2039745 0.44322842
-0.064968288 2.2103987 0.45310992
-0.47887245 2.3699923 0.44245797
-0.4955219 2.3763375 0.44348913
-0.16719434 1.7487013 0.43919879
-0.18052851 1.7566553 0.44324714
-0.20242293 1.7659073 0.44313765
-0.2195992 1.7669386 0.44151574
-0.61147881 1.921343 0.44048876
-0.6287291 1.9307462 0.44414598
-0.64877462 1.9382728 0.44426191
-0.66608971 1.9368488 0.45364469
-0.17068206 1.7335991 0.44424975
-0.18768162 1.7321697 0.444107
-0.21149704 1.7367388 0.44364542
-0.22477156 1.7521013 0.44343293
-0.61826921 1.9016985 0.44357443
-0.63529193 1.9034295 0.44386858
-0.65725392 1.9148991 0.44433981
-0.6676271 1.9295396 0.44348049
-0.19626617 1.7209978 0.4439221
-0.21085972 1.7272193 0.44388074
-0.64139974 1.8949252 0.44352871
-0.65382779 1.9000612 0.44584364
-0.0066530406 2.2225223 0.47567368
-0.018909544 2.2327511 0.47050655
-0.040333897 2.2413497 0.4696821
-0.056641787 2.2434134 0.4702605
-0.45054662 2.3961337 0.47043902
-0.46417594 2.4068871 0.47012454
-0.48620275 2.4142754 0.47020566
-0.5027914 2.4124115 0.46641845
-0.0099129677 2.2101941 0.47001374
-0.022639811 2.2093472 0.47121167
-0.052909225 2.2191069 0.46991694
-0.062941492 2.2287996 0.46937102
-0.4536202 2.3818119 0.47130942
-0.47079647 2.3821273 0.46978015
-0.4980951 2.3940308 0.47094697
-0.50637054 2.4023795 0.46845776
-0.03364712 2.1971779 0.47144771
-0.052206516 2.2034667 0.4691807
-0.065813601 2.2122416 0.46350324
-0.46361488 2.3664289 0.46979791
-0.48098058 2.3709793 0.47049463
-0.49616334 2.3773079 0.47011203
-0.16592202 1.7463987 0.47163069
-0.17994657 1.7556436 0.47114027
-0.20268902 1.7662116 0.46983105
-0.21908191 1.7674546 0.47190857
-0.61086011 1.9204789 0.47427177
-0.6272881 1.9302795 0.47039711
-0.64816165 1.9389591 0.4703669
-0.66443598 1.939117 0.46315855
-0.17134652 1.73483 0.46919686
-0.18793978 1.7318947 0.47126251
-0.21187945 1.7366598 0.47038162
-0.22470492 1.7526929 0.47027987
-0.61744142 1.9027882 0.47205365
-0.63585782 1.9040014 0.47028613
-0.65732443 1.9153355 0.47139359
-0.66867507 1.9298152 0.47730869
-0.19397339 1.7209309 0.46929699
-0.21242788 1.7276248 0.47279304
-0.64183348 1.8947757 0.47205782
-0.65608072 1.9011663 0.46847075
-0.019132555 2.2329433 0.49675602
-0.038758755 2.2416666 0.49813873
-0.056794584 2.2425258 0.49578834
-0.45041367 2.3957312 0.49998748
-0.46474898 2.4074397 0.49775821
-0.48552763 2.4148922 0.49626553
-0.50182027 2.41377 0.4919365
-0.0095043182 2.2087867 0.49596387
-0.022458434 2.2092772 0.49750948
-0.053298771 2.2217915 0.497428
-0.063753366 2.2273746 0.4962678
-0.4529151 2.3824828 0.49741262
-0.46926066 2.3835258 0.49704975
-0.49730623 2.3946807 0.49801987
-0.5058068 2.4050398 0.49676293
-0.033930361 2.1968906 0.49683243
-0.05173865 2.2031946 0.49671948
-0.065739691 2.211498 0.50464755
-0.46246576 2.3659 0.49535942
-0.48160291 2.3712304 0.49740654
-0.49533486 2.3767424 0.49815953
-0.16728884 1.7413806 0.497105
-0.17976779 1.7558372 0.49721068
-0.20310922 1.7664378 0.4983145
-0.22097147 1.765119 0.49669898
-0.60846978 1.9239162 0.49776697
-0.62805176 1.9309381 0.49879211
-0.64770794 1.9380816 0.49755126
-0.66449565 1.9385648 0.49900103
-0.17141885 1.7325218 0.49317843
-0.18787959 1.7312959 0.49714047
-0.21261467 1.7371341 0.49728709
-0.22500573 1.7514524 0.49668688
-0.61840761 1.9015253 0.49736732
-0.63429129 1.904456 0.49694538
-0.65746796 1.9140229 0.49802625
-0.66728967 1.9305884 0.49442583
-0.1952436 1.7210443 0.49791837
-0.21061936 1.7267992 0.50066978
-0.64240992 1.8951445 0.49728298
-0.65427655 1.8997246 0.49752718
-0.006481111 2.2220283 0.51972067
-0.019167155 2.2333953 0.52330989
-0.039679229 2.2418046 0.52343887
-0.056224048 2.2429786 0.52459097
-0.087569535 2.2510176 0.53430158
-0.12379679 2.2651253 0.53622144
-0.15172845 2.2760036 0.53516299
-0.17981079 2.2869406 0.53409874
-0.20804486 2.2979364 0.5330289
-0.23643611 2.3089848 0.53195566
-0.26510495 2.319876 0.53094965
-0.28269678 2.3269992 0.53693151
-0.31152093 2.3382249 0.53585762
-0.34050322 2.3495123 0.53477782
-0.36964476 2.3608615 0.53369218
-0.39894691 2.3722734 0.53260046
-0.42489347 2.3824229 0.534468
-0.44943988 2.3949814 0.52579397
-0.4641102 2.4071341 0.52303088
-0.48530555 2.4144645 0.52455878
-0.50128704 2.414309 0.52762628
-0.0096276402 2.2077253 0.52527034
-0.021980673 2.2098293 0.52406925
-0.053034902 2.2218459 0.52321339
-0.066035569 2.2288611 0.52680415
-0.095891297 2.2378948 0.53463393
-0.11726892 2.2473097 0.53390086
-0.14143562 2.2573555 0.53401732
-0.16555235 2.2655096 0.53421164
-0.18805571 2.2754617 0.5344969
-0.214505 2.2850056 0.5344426
-0.23744449 2.2935967 0.53404254
-0.25969589 2.3040011 0.53387475
-0.28335941 2.3109233 0.53373271
-0.30574757 2.3208678 0.53405637
-0.32862809 2.3312254 0.53399342
-0.352525 2.3393919 0.53386432
-0.3778128 2.348485 0.53413814
-0.39941052 2.357476 0.53320277
-0.42249817 2.3652868 0.53360146
-0.44754404 2.3779504 0.52873707
-0.46961406 2.3832884 0.52526057
-0.49676952 2.3940241 0.52388442
-0.50704825 2.4009867 0.52362007
-0.035733104 2.1946445 0.52561098
-0.052416235 2.1997583 0.52559859
-0.07874915 2.2028234 0.5340519
-0.1037558 2.2124243 0.53463197
-0.12740457 2.2232735 0.53458309
-0.15142477 2.2336137 0.53382021
-0.17468733 2.2403631 0.53423047
-0.19517303 2.2485609 0.53369659
-0.22238234 2.2584836 0.53341591
-0.24661484 2.2676272 0.53384447
-0.26899672 2.2764332 0.53360122
-0.29109979 2.2857833 0.53403968
-0.31574613 2.2948139 0.53367984
-0.3392348 2.3032439 0.53374141
-0.35990241 2.3129747 0.53351438
-0.38433403 2.3215852 0.53347462
-0.40861276 2.3314528 0.53306639
-0.43252206 2.3404672 0.53383625
-0.45433453 2.349648 0.53337705
-0.48081291 2.3651392 0.52743655
-0.49587804 2.3752284 0.52512765
-0.04942292 2.1640813 0.53477681
-0.063271254 2.169558 0.53420901
-0.086360931 2.1783333 0.53421837
-0.11051556 2.1872838 0.53455752
-0.13660619 2.1968348 0.53418815
-0.15986341 2.2057366 0.53396374
-0.18174753 2.21715 0.53381133
-0.20363007 2.2235687 0.53371829
-0.23028886 2.2342799 0.53395349
-0.25537497 2.2430694 0.53386134
-0.27809811 2.251992 0.53361261
-0.30008885 2.2595973 0.53345245
-0.32548514 2.270911 0.53342307
-0.34731483 2.2777195 0.53338766
-0.36843276 2.2877579 0.53339833
-0.39349157 2.297523 0.53390378
-0.41526723 2.3055334 0.53319341
-0.43983844 2.3158405 0.53372133
-0.46432132 2.3242471 0.53320503
-0.48939815 2.3351362 0.53284305
-0.50553167 2.3410561 0.53382963
-0.058220893 2.1388175 0.53465444
-0.073235512 2.1438472 0.53405547
-0.095746815 2.1531138 0.53376126
-0.12010056 2.1615512 0.53463423
-0.14380774 2.1720138 0.53396541
-0.16927874 2.1810098 0.53412551
-0.19044107 2.1892307 0.53394395
-0.21283969 2.1965554 0.53406549
-0.23876414 2.2092721 0.53382307
-0.26461631 2.2190759 0.53391492
-0.28492251 2.2269702 0.53344816
-0.30718166 2.2360168 0.53355575
-0.33210972 2.2452154 0.53379899
-0.35698187 2.2524459 0.53301537
-0.3785497 2.2635074 0.53351456
-0.40090865 2.2713246 0.53332031
-0.42520276 2.2815239 0.53284645
-0.44990593 2.2916193 0.53356183
-0.47275051 2.2998865 0.53332138
-0.49798012 2.3077214 0.53342229
-0.51484364 2.3146811 0.53351629
-0.064933568 2.1148748 0.53550446
-0.081285954 2.118531 0.53404331
-0.1041629 2.1266546 0.53409255
-0.12706542 2.1377642 0.53440267
-0.15253121 2.147264 0.53428036
-0.1768474 2.1576519 0.53395301
-0.20106697 2.1664057 0.53395116
-0.22058952 2.1728268 0.5335179
-0.24665064 2.1843631 0.53353333
-0.27094591 2.1949883 0.5341447
-0.29265463 2.2014244 0.53337306
-0.31594044 2.2119884 0.53331858
-0.34168854 2.2196703 0.53372151
-0.36404318 2.2292264 0.53285962
-0.385546 2.2384648 0.5331589
-0.4102447 2.2475529 0.53323406
-0.43245053 2.2568564 0.53300875
-0.45835266 2.2663751 0.53340191
-0.48092812 2.2768495 0.53282863
-0.50700951 2.2835202 0.53282565
-0.52289104 2.2916398 0.53355438
-0.073850513 2.089632 0.5354529
-0.088446051 2.0930903 0.53418922
-0.1128093 2.1042194 0.53386885
-0.13552856 2.1123867 0.53447378
-0.16129929 2.121762 0.53411359
-0.18529153 2.1320925 0.5342207
-0.20824373 2.1419294 0.53387517
-0.22931299 2.1502676 0.53410512
-0.2554785 2.1596611 0.53375912
-0.28056332 2.1691043 0.53414601
-0.3018972 2.1775455 0.53356451
-0.32425714 2.1862009 0.53317416
-0.35086235 2.1970465 0.53399479
-0.37394401 2.20608 0.53287262
-0.3954213 2.2144663 0.53354108
-0.41869873 2.2214851 0.53287846
-0.44125646 2.2317226 0.53283578
-0.46630448 2.2420294 0.53332156
-0.49058512 2.2513742 0.53296459
-0.51435876 2.2607901 0.53362489
-0.53127426 2.2640886 0.53361923
-0.082374811 2.063324 0.53519684
-0.097606122 2.0693061 0.53390622
-0.12171677 2.0786474 0.53384656
-0.1446681 2.0868266 0.53440058
-0.16827309 2.0974152 0.53391856
-0.19586271 2.1079955 0.53395009
-0.21793205 2.1152222 0.53416044
-0.23872039 2.1227999 0.53395683
-0.26390135 2.1335154 0.53355366
-0.28817579 2.1439557 0.53406352
-0.30939788 2.1518052 0.53338957
-0.33184141 2.1608295 0.53340858
-0.3589052 2.1698744 0.53389353
-0.38089228 2.1808267 0.53320605
-0.40499887 2.1882799 0.5334841
-0.42878076 2.19699 0.53337681
-0.45096591 2.2071407 0.53321916
-0.47586799 2.2167466 0.53334951
-0.50022 2.2256432 0.53290212
-0.52275246 2.2358239 0.53313941
-0.54072553 2.2394476 0.53425556
-0.091956258 2.0374215 0.53509253
-0.10670549 2.0444777 0.53444785
-0.13022727 2.0532696 0.53412759
-0.15372911 2.0626464 0.53458238
-0.17831419 2.072927 0.53359914
-0.20155144 2.080821 0.53380018
-0.22643411 2.091234 0.53397804
-0.24733067 2.1002464 0.53379971
-0.27282295 2.1095586 0.53392279
-0.29614201 2.1178906 0.53351015
-0.31974292 2.1273088 0.5328483
-0.34095374 2.1350758 0.53318202
-0.36810839 2.1438313 0.53353256
-0.39052144 2.1539183 0.53316945
-0.41195384 2.162869 0.53397375
-0.43709198 2.1710505 0.5335477
-0.45806402 2.1817255 0.53296965
-0.48293895 2.1911097 0.53322864
-0.50917947 2.2007806 0.53319705
-0.53189874 2.2107148 0.53335214
-0.54693735 2.2149677 0.53287458
-0.1020343 2.0120482 0.53421438
-0.11630058 2.0178525 0.53435111
-0.13870457 2.0279851 0.53362185
-0.16171229 2.0365624 0.53447425
-0.18638228 2.0461965 0.53369862
-0.21078487 2.0557587 0.53353333
-0.23352453 2.0657244 0.53389359
-0.25610045 2.0750387 0.53418463
-0.28148323 2.0842125 0.53354454
-0.30722007 2.0914712 0.5339635
-0.32739088 2.1031802 0.53344131
-0.3502112 2.111115 0.53373092
-0.37658009 2.1199422 0.53365266
-0.39781675 2.129178 0.53277242
-0.42213488 2.1378558 0.53349102
-0.44594908 2.1476798 0.53365284
-0.46783435 2.1560903 0.53294432
-0.49204019 2.1642027 0.53286827
-0.51760125 2.1764088 0.53324795
-0.54164743 2.1847918 0.53296012
-0.55666482 2.1903 0.53384733
-0.10921857 1.9887387 0.53373539
-0.12533253 1.9929926 0.53414577
-0.14735532 2.0011504 0.53361499
-0.17043388 2.0107706 0.53457183
-0.19582419 2.020823 0.53363335
-0.22034648 2.0299911 0.5338167
-0.24336049 2.0387189 0.53371352
-0.26558924 2.046978 0.53386939
-0.29009372 2.0584605 0.5337373
-0.31479439 2.0667536 0.53392279
-0.33805001 2.0762646 0.53357446
-0.35769975 2.0838506 0.53326797
-0.38501409 2.0939884 0.53347868
-0.40654418 2.1048541 0.53378421
-0.43103039 2.1125557 0.53305018
-0.45497817 2.1219656 0.5332635
-0.47658113 2.1317248 0.5331881
-0.50173515 2.1394768 0.53264409
-0.52601546 2.1493831 0.53391504
-0.5470922 2.157443 0.53263128
-0.56571043 2.1627581 0.53385168
-0.11617616 1.9629935 0.53474408
-0.13195238 1.9698943 0.53424996
-0.15542948 1.9760059 0.53340733
-0.17829277 1.9864196 0.53422993
-0.2041043 1.9955946 0.53370136
-0.22853684 2.0045338 0.53352737
-0.25040928 2.0130212 0.53389335
-0.27296123 2.0230768 0.53368628
-0.29896653 2.0326478 0.53343523
-0.32381681 2.0425336 0.53364617
-0.34659207 2.0523574 0.53357404
-0.36867154 2.058954 0.53336936
-0.39435428 2.0703385 0.53343749
-0.41540289 2.0793498 0.53294212
-0.43940508 2.0870337 0.53267944
-0.46414968 2.0970798 0.53297317
-0.48687321 2.1071022 0.53275061
-0.51009989 2.111335 0.53314161
-0.53292465 2.1230149 0.5330587
-0.55725902 2.1307139 0.53291094
-0.575993 2.1366117 0.53426009
-0.12526819 1.9366165 0.53404981
-0.14219353 1.9440995 0.53410262
-0.16459975 1.9523492 0.5336464
-0.18662238 1.9623399 0.53435981
-0.21209584 1.9706465 0.53379816
-0.2360165 1.981446 0.53407913
-0.25938177 1.9899967 0.53357923
-0.28167474 1.9992704 0.53369886
-0.30664679 2.0089598 0.53370631
-0.33199775 2.0179772 0.53391886
-0.35489801 2.0282516 0.53368908
-0.37446535 2.0340037 0.53323305
-0.40261161 2.0451806 0.5331502
-0.4242759 2.0552506 0.53322154
-0.4467518 2.0622504 0.53265935
-0.47269711 2.0721908 0.53326887
-0.49448958 2.0802188 0.53223681
-0.51758784 2.0885231 0.53334874
-0.54175526 2.0994756 0.53311658
-0.56580925 2.1079974 0.53315163
-0.58315015 2.1173222 0.5350799
-0.13238809 1.9124126 0.53451937
-0.15154415 1.918149 0.53397757
-0.17306954 1.927297 0.53390765
-0.19601771 1.9354475 0.53388208
-0.22217765 1.9466829 0.533867
-0.24501488 1.9559323 0.5337556
-0.26669005 1.9639595 0.53383595
-0.29052746 1.9742092 0.5338918
-0.31529987 1.9832418 0.53350985
-0.33920914 1.9926283 0.53357631
-0.36308146 2.001519 0.53339857
-0.38463598 2.0089691 0.53321815
-0.41156974 2.0204868 0.53392649
-0.43363383 2.0276718 0.53310341
-0.45597652 2.0394692 0.53317755
-0.47997478 2.0474126 0.53330094
-0.50153458 2.0559506 0.53341389
-0.52497554 2.065649 0.53313494
-0.54906654 2.0745158 0.5327881
-0.57208782 2.0835347 0.53257328
-0.59145564 2.0921698 0.53372788
-0.14280933 1.885626 0.5339511
-0.1590378 1.8926183 0.53407055
-0.18134588 1.9016315 0.53363746
-0.20615071 1.9104321 0.53351307
-0.22961299 1.920041 0.53349173
-0.25305176 1.9306298 0.53366292
-0.27491868 1.9402893 0.53352183
-0.29899052 1.9480293 0.53357106
-0.32388043 1.9582469 0.53342724
-0.34900567 1.9671978 0.53379762
-0.37195417 1.9752707 0.5336355
-0.39099562 1.9839665 0.53275532
-0.4194327 1.9965433 0.53325081
-0.4419837 2.002845 0.5336563
-0.46293241 2.014472 0.53328294
-0.48771435 2.021431 0.53307366
-0.51149392 2.0311899 0.5328052
-0.53417373 2.0400808 0.53299695
-0.55836976 2.0487456 0.53340697
-0.58234549 2.0577888 0.53275579
-0.59838426 2.0653722 0.53329766
-0.15175003 1.8596866 0.53420782
-0.16719902 1.8687536 0.53382909
-0.188769 1.8772018 0.53384018
-0.2134611 1.8852676 0.53381479
-0.2391274 1.894981 0.53385305
-0.26352054 1.906226 0.53390157
-0.28346491 1.9151431 0.53367758
-0.30780146 1.9235916 0.53364408
-0.33198971 1.9317718 0.53339601
-0.3571195 1.941656 0.5335381
-0.38067943 1.9489059 0.53347158
-0.40140915 1.9581033 0.53328019
-0.42877278 1.9688965 0.53381878
-0.45071107 1.9762267 0.53383017
-0.46991318 1.9885963 0.5332132
-0.49759728 1.9966393 0.53345275
-0.52245808 2.0037417 0.53279197
-0.54317057 2.0121906 0.53307414
-0.56683862 2.0224864 0.53291023
-0.59128904 2.03251 0.53301245
-0.60978711 2.033983 0.5330497
-0.15985176 1.8389337 0.5340246
-0.17707072 1.8428738 0.53369057
-0.19816995 1.8527007 0.53380674
-0.22185434 1.8609892 0.5335539
-0.24803294 1.8700291 0.53427833
-0.27232513 1.8801733 0.53358215
-0.2936298 1.8880373 0.53337282
-0.31551373 1.8971452 0.53376818
-0.34192073 1.9060858 0.53315723
-0.36705506 1.9153844 0.5330413
-0.38923308 1.9245592 0.53387541
-0.40827924 1.9342963 0.53323764
-0.43612614 1.9435209 0.53353757
-0.45920154 1.9536909 0.53309774
-0.48059377 1.9617572 0.53329343
-0.50558466 1.9720943 0.53288758
-0.53022176 1.9800141 0.53303999
-0.55254775 1.9882028 0.53262967
-0.57580018 1.9989489 0.53285766
-0.59962946 2.0077293 0.53312415
-0.61560231 2.0149872 0.53124696
-0.16870189 1.8132497 0.53395349
-0.18628907 1.8191202 0.53420043
-0.20838797 1.8268516 0.53374821
-0.23195918 1.8357941 0.53354257
-0.25594386 1.8454369 0.53345436
-0.28040424 1.8555996 0.53353351
-0.30229247 1.8627006 0.53346711
-0.32477161 1.8715613 0.53288269
-0.3499189 1.8820293 0.53346652
-0.37436548 1.8920907 0.53396583
-0.39679059 1.9020121 0.53376412
-0.41622674 1.9094561 0.532956
-0.4449515 1.9200902 0.53339463
-0.46820599 1.929166 0.53416836
-0.49053541 1.9359384 0.53324896
-0.51365316 1.9473194 0.53360277
-0.53838789 1.9576143 0.53329337
-0.56098855 1.9651178 0.53293139
-0.58482081 1.9728608 0.53322411
-0.60770571 1.9841682 0.53284484
-0.62247819 1.9944278 0.53237939
-0.177277 1.7884395 0.53405267
-0.194337 1.7920287 0.53376853
-0.21582274 1.8007898 0.53369695
-0.24134721 1.8104511 0.53339696
-0.2659497 1.8213987 0.53369063
-0.29004169 1.8299435 0.53338498
-0.31069881 1.8394582 0.53397107
-0.33339337 1.8476819 0.53415465
-0.35777059 1.8573992 0.53338456
-0.3825624 1.8671261 0.53324556
-0.40539712 1.8751 0.53345013
-0.42535016 1.8823557 0.53298426
-0.4527427 1.8924626 0.53321904
-0.47721624 1.9032406 0.53308511
-0.49957803 1.9101498 0.53298396
-0.52172685 1.920193 0.53340733
-0.54658449 1.9310572 0.53261697
-0.57054371 1.9392533 0.53338546
-0.5945884 1.947072 0.53242707
-0.61419308 1.9576908 0.53322905
-0.63177216 1.9648021 0.53320378
-0.16692623 1.7463632 0.52184498
-0.17995216 1.756012 0.52403772
-0.20246191 1.7674303 0.52503234
-0.22369854 1.7726624 0.53015041
-0.24869974 1.7851958 0.53347588
-0.27281445 1.7947706 0.53382879
-0.29841173 1.8034668 0.53371125
-0.32017419 1.813264 0.53385597
-0.34238333 1.8211715 0.5343799
-0.36708021 1.8317358 0.53308529
-0.39194909 1.8397766 0.53373039
-0.41556275 1.8490496 0.53341413
-0.43518937 1.8562648 0.53306967
-0.4605222 1.8681437 0.53374678
-0.48519003 1.877424 0.53395265
-0.50659293 1.8839021 0.53406668
-0.53093642 1.8951221 0.53356391
-0.55700094 1.9054487 0.53370923
-0.57963771 1.9138635 0.5339098
-0.60452068 1.9231082 0.53345817
-0.6279828 1.9312786 0.52515471
-0.64804202 1.9388375 0.52383071
-0.66583323 1.9393101 0.52616096
-0.17077625 1.7340379 0.52368969
-0.1886972 1.7315888 0.5233956
-0.2115244 1.7367836 0.52417392
-0.22760357 1.7531098 0.52625966
-0.25779706 1.7665688 0.53361475
-0.2802994 1.7759894 0.53398335
-0.30625489 1.7845765 0.53401333
-0.3263568 1.791698 0.53464502
-0.34963381 1.8027813 0.53413743
-0.37451556 1.8128468 0.53367674
-0.39597586 1.8208238 0.53519881
-0.42170209 1.8307378 0.53452897
-0.44333482 1.8374294 0.53329945
-0.46768516 1.8482975 0.53378624
-0.49090278 1.8572967 0.53409785
-0.51486856 1.8670467 0.53411621
-0.53930211 1.8757975 0.53382897
-0.56101942 1.884734 0.53307426
-0.58386725 1.8922304 0.53371531
-0.613608 1.9022661 0.52899528
-0.635858 1.9036142 0.52332008
-0.65663975 1.9140024 0.5250085
-0.66835892 1.9276078 0.52335095
-0.19913955 1.7223469 0.5276677
-0.21099162 1.7270082 0.52332598
-0.64182317 1.8946778 0.52464145
-0.65439403 1.8998892 0.52269816
-0.0065598786 2.2207294 0.54803532
-0.018671036 2.2327588 0.54987621
-0.04043591 2.2411857 0.55058646
-0.062783241 2.2428339 0.55074704
-0.091133773 2.2526293 0.55287164
-0.11320573 2.2613719 0.55244964
-0.13870436 2.2712381 0.55249053
-0.16003466 2.2796164 0.55121517
-0.18278861 2.2883756 0.5524869
-0.20820358 2.2983131 0.55196047
-0.23202038 2.3075936 0.55061036
-0.25553626 2.3166275 0.55185127
-0.2767542 2.3250875 0.55160069
-0.30046013 2.334271 0.55229509
-0.3266046 2.3444383 0.5527277
-0.34873638 2.3531315 0.55139983
-0.37184602 2.3620489 0.55259424
-0.39777637 2.3721955 0.55091614
-0.41861653 2.3801696 0.55306542
-0.4460749 2.392611 0.55309796
-0.46479952 2.4072948 0.55058151
-0.48536056 2.414782 0.55076218
-0.50149167 2.4126465 0.55185217
-0.010491014 2.2087417 0.55334216
-0.022164583 2.2101514 0.55030954
-0.053115845 2.2260273 0.54851329
-0.069467843 2.2342567 0.55001509
-0.092434585 2.2437403 0.55113769
-0.1165188 2.2523732 0.54952502
-0.14049107 2.26108 0.54993099
-0.16378343 2.2712538 0.54932225
-0.18722835 2.279541 0.55023253
-0.21003005 2.2896025 0.55053532
-0.2346721 2.2978714 0.54960692
-0.25782514 2.3068738 0.54984093
-0.28078717 2.3165562 0.54994506
-0.30481392 2.3259876 0.55033857
-0.32820594 2.3336632 0.55023015
-0.3517164 2.3435521 0.54986912
-0.37442154 2.3529091 0.55023944
-0.39890534 2.3613231 0.54977471
-0.42233866 2.3720303 0.55101693
-0.44505116 2.3800874 0.54961222
-0.46458131 2.3854661 0.54893976
-0.4971562 2.3949046 0.54990005
-0.50672883 2.4008975 0.55208397
-0.037635326 2.1896193 0.54964232
-0.054211259 2.1948955 0.54869509
-0.080651343 2.2041669 0.54570615
-0.10436958 2.2129204 0.54504764
-0.12702844 2.222343 0.54623294
-0.15112197 2.2320857 0.54504299
-0.17438182 2.2407081 0.54551262
-0.19720532 2.250567 0.54632902
-0.22000107 2.2597892 0.54555881
-0.24466243 2.268497 0.54464734
-0.26890469 2.2772701 0.54691017
-0.29027891 2.2861624 0.54520935
-0.31430051 2.2952294 0.54554033
-0.33748221 2.3051989 0.54595751
-0.36215371 2.3137319 0.54576927
-0.38519755 2.3235526 0.54567724
-0.40941504 2.3327749 0.54587024
-0.4329145 2.3421495 0.54623848
-0.45593983 2.3496578 0.54580307
-0.48137614 2.3614984 0.54703444
-0.49671486 2.367614 0.55205554
-0.04656741 2.1624935 0.55009103
-0.062410504 2.1694448 0.54906934
-0.088777363 2.1791084 0.54635388
-0.11368474 2.1888247 0.54481339
-0.13644582 2.1970642 0.5461812
-0.15985358 2.2070074 0.54517049
-0.18257099 2.214982 0.54530925
-0.2063061 2.2251222 0.54627824
-0.22858116 2.2337561 0.54540598
-0.25336635 2.2428632 0.54503733
-0.27685019 2.2518294 0.54653639
-0.29931378 2.2602034 0.54509193
-0.32330236 2.2706738 0.54597342
-0.34657145 2.2802873 0.54658431
-0.37145621 2.2888465 0.54550946
-0.3942264 2.29738 0.54628968
-0.41784924 2.3069899 0.54575032
-0.44090503 2.3170698 0.54586667
-0.46455851 2.3251157 0.54632533
-0.4901132 2.3350823 0.54897684
-0.50668222 2.3418403 0.55157119
-0.055057079 2.137279 0.55037951
-0.07213515 2.1440811 0.54814225
-0.098099411 2.1539199 0.54647911
-0.1211735 2.1639166 0.54544622
-0.14392382 2.1725252 0.54589444
-0.16806269 2.182039 0.54619586
-0.19248098 2.1911299 0.54613644
-0.21610059 2.2000999 0.54645932
-0.23789272 2.2096581 0.54605669
-0.26150179 2.2181787 0.54561251
-0.2851283 2.2272892 0.54687744
-0.30769452 2.2365432 0.54606193
-0.33214927 2.2453074 0.5468443
-0.35487634 2.2546453 0.54638398
-0.37903875 2.2633522 0.54663134
-0.40302497 2.272162 0.54590487
-0.42598721 2.2821136 0.54642689
-0.44944355 2.2917783 0.54685819
-0.47373912 2.3003445 0.54639482
-0.49909747 2.3112974 0.54863346
-0.51560587 2.3172593 0.55158401
-0.06320709 2.1120808 0.55042207
-0.080792099 2.1189415 0.54887342
-0.10711169 2.127075 0.54565024
-0.13066679 2.1373849 0.54537791
-0.15292367 2.1466484 0.54590929
-0.17654838 2.155911 0.54642713
-0.20097356 2.1648581 0.54582798
-0.22480586 2.175118 0.545569
-0.24675597 2.1827595 0.54574805
-0.27103135 2.1928036 0.54498553
-0.29423085 2.2014847 0.5470773
-0.31562182 2.2092454 0.54486096
-0.34012032 2.2198427 0.54546094
-0.36361796 2.2290356 0.54633981
-0.38770518 2.2380171 0.54537505
-0.41122335 2.2462294 0.54535002
-0.43440801 2.2565331 0.5459317
-0.45882633 2.2650385 0.54649979
-0.48230562 2.2750854 0.54635626
-0.50821227 2.2847311 0.54903251
-0.52393901 2.2917523 0.55053711
-0.071985513 2.0882163 0.54952031
-0.090012014 2.0940728 0.54807693
-0.11638895 2.1045485 0.54650748
-0.13806918 2.1121721 0.54597872
-0.16095492 2.1225343 0.54637873
-0.18471622 2.1309536 0.54649717
-0.20894492 2.1401062 0.54601288
-0.2337175 2.1499338 0.54587972
-0.25538391 2.1591887 0.54638642
-0.27903467 2.168252 0.54571915
-0.30335638 2.1762247 0.54618496
-0.3250916 2.1846583 0.54583567
-0.34986025 2.1947558 0.54666239
-0.37223929 2.2045217 0.54633689
-0.39657989 2.2129984 0.54607272
-0.41887146 2.222764 0.54689276
-0.4431909 2.2315617 0.54655361
-0.46715051 2.2408893 0.5466035
-0.49009579 2.2503996 0.54700452
-0.51683319 2.2602222 0.54910642
-0.53251934 2.267735 0.55053347
-0.080326974 2.0628033 0.55003077
-0.098448724 2.0693288 0.54837102
-0.12311584 2.0788708 0.54559821
-0.14634782 2.0866923 0.54571962
-0.17084354 2.0980215 0.54597223
-0.19339788 2.1063838 0.54568434
-0.21685672 2.1154265 0.54526466
-0.24145813 2.1251669 0.54681855
-0.2636593 2.1342413 0.54584038
-0.2871539 2.1424689 0.54631644
-0.31139544 2.1523085 0.54677284
-0.33336553 2.1609292 0.54508668
-0.35769385 2.1700633 0.54576671
-0.38125929 2.1792693 0.54657966
-0.40470073 2.1874068 0.54620785
-0.42750037 2.1975706 0.54596758
-0.45155481 2.2063606 0.54641587
-0.47488198 2.2164316 0.54599422
-0.49868119 2.2252576 0.54655361
-0.52455777 2.2353318 0.5491088
-0.54049885 2.2419553 0.55070937
-0.089378476 2.0369022 0.55000556
-0.10616642 2.0437851 0.54815727
-0.13209829 2.0530336 0.54668474
-0.15526676 2.0612104 0.54595745
-0.17789513 2.0713205 0.54678363
-0.20161407 2.080018 0.54624164
-0.22525895 2.0890241 0.54599077
-0.25045004 2.0994003 0.54588813
-0.27282399 2.1078677 0.5461219
-0.29681379 2.1171827 0.54609287
-0.32016277 2.1273556 0.54648745
-0.34139815 2.1362216 0.54560727
-0.36666423 2.1451087 0.54600954
-0.38891447 2.1540694 0.54650521
-0.41290528 2.1632822 0.54572028
-0.43629825 2.1715505 0.54665774
-0.4605507 2.1804142 0.54634786
-0.48464856 2.1913083 0.54640061
-0.50850892 2.1992049 0.5468064
-0.53353488 2.2102265 0.54920495
-0.54949832 2.2169631 0.55073285
-0.097892076 2.0116849 0.54957122
-0.1147733 2.0183468 0.54667699
-0.14035818 2.0298648 0.54550219
-0.16212964 2.0373397 0.54560965
-0.18811592 2.0471756 0.54554403
-0.21075739 2.0566707 0.54607517
-0.23369376 2.0654294 0.5463624
-0.25775337 2.0743032 0.54652137
-0.28047377 2.0821605 0.54646438
-0.30486608 2.0927629 0.54587352
-0.32863525 2.1018064 0.54686928
-0.34988654 2.1101673 0.54576427
-0.37479383 2.1194296 0.54626971
-0.398029 2.1289363 0.54653001
-0.42113072 2.1391056 0.54675567
-0.44549912 2.1476066 0.546058
-0.4692463 2.1564984 0.54676616
-0.49340439 2.1660817 0.54696441
-0.51648349 2.1752698 0.54688174
-0.54078001 2.1849804 0.54815716
-0.5581156 2.1910028 0.55067986
-0.10639727 1.9871988 0.55018175
-0.12416607 1.994067 0.54644352
-0.14844948 2.0045609 0.54557639
-0.17135856 2.0120184 0.54568571
-0.19610958 2.021225 0.54594666
-0.21875605 2.0307882 0.54569405
-0.24277431 2.0403624 0.5457769
-0.26568502 2.0494936 0.54631412
-0.28861785 2.0574644 0.5462755
-0.31322813 2.0683379 0.54643941
-0.33778 2.0766914 0.54651868
-0.3591069 2.0850267 0.54547268
-0.38394326 2.0950015 0.54606766
-0.40637195 2.1038046 0.54669929
-0.43006131 2.1132152 0.54622453
-0.4536624 2.121841 0.54601222
-0.47646576 2.1311932 0.54615897
-0.50207746 2.1402512 0.54619849
-0.52445191 2.1497865 0.5468173
-0.54920244 2.1595011 0.54811263
-0.56692147 2.1663158 0.5499984
-0.11482891 1.9624343 0.55097729
-0.13192472 1.9698972 0.54716569
-0.15599078 1.9784573 0.54659092
-0.17878672 1.9869328 0.54694343
-0.20657332 1.997203 0.5458501
-0.22830726 2.0057359 0.54677349
-0.25095573 2.0152116 0.54670262
-0.27505162 2.0240505 0.54648972
-0.2969442 2.0319417 0.54630649
-0.32188624 2.0428271 0.54598528
-0.34542871 2.0513082 0.54673356
-0.36696023 2.0599573 0.54585838
-0.39318317 2.0700927 0.5464161
-0.41501334 2.0789106 0.54626966
-0.43854934 2.0869558 0.5462622
-0.46238554 2.0970802 0.54593074
-0.48481771 2.1065466 0.54757255
-0.50981605 2.1152558 0.54701364
-0.53315675 2.1247332 0.54702306
-0.55801159 2.1345074 0.54889446
-0.57524049 2.141614 0.55142725
-0.12344682 1.9365115 0.55086726
-0.14098817 1.9439304 0.5470804
-0.1661655 1.9542717 0.54597062
-0.18802561 1.9624506 0.54598206
-0.21350089 1.9723591 0.54545665
-0.23707461 1.9800384 0.54625612
-0.2594564 1.9895949 0.54545826
-0.28235188 1.9988924 0.54597312
-0.30471778 2.0075316 0.54601717
-0.33015478 2.0169241 0.54580706
-0.35444689 2.0266616 0.54717821
-0.37557387 2.0353189 0.54596132
-0.40136942 2.0446794 0.54629892
-0.42421487 2.0536623 0.54634017
-0.44714248 2.0625458 0.54603726
-0.46953973 2.0718994 0.54624641
-0.49192563 2.0805998 0.54603273
-0.51805651 2.0909581 0.54603654
-0.54178786 2.0994368 0.54647475
-0.56576359 2.1092873 0.5479176
-0.58396333 2.1157217 0.5507971
-0.13282427 1.91144 0.55022448
-0.15032759 1.917562 0.54739571
-0.17396829 1.9274508 0.54620677
-0.19676086 1.9351863 0.54604459
-0.22286502 1.9455128 0.54577374
-0.24528055 1.9540375 0.54659277
-0.26827502 1.9627607 0.54623288
-0.2905345 1.9731847 0.54598284
-0.31389195 1.9813414 0.54644829
-0.33951309 1.9912015 0.54543245
-0.36292452 2.0010915 0.54689682
-0.38449728 2.0092421 0.54591823
-0.41058925 2.0185499 0.54724371
-0.43269649 2.0285747 0.54677099
-0.45592636 2.0354061 0.54672009
-0.48004344 2.0455883 0.5465036
-0.50201768 2.055717 0.54609668
-0.52696013 2.0639164 0.54701018
-0.55087936 2.0728245 0.54684037
-0.57467639 2.0822468 0.54759711
-0.5927043 2.0893302 0.55200893
-0.14093518 1.8862561 0.55043858
-0.15758774 1.8921601 0.54800522
-0.18317342 1.9038389 0.54718107
-0.20478269 1.9117134 0.54645824
-0.23026039 1.919948 0.54667896
-0.25322071 1.9303683 0.54672813
-0.27623981 1.9392613 0.54600507
-0.29948619 1.9494423 0.54630327
-0.32293278 1.9565204 0.54645485
-0.34721377 1.9667649 0.54561645
-0.37190738 1.9759209 0.5465917
-0.39349917 1.9834183 0.54515254
-0.41859007 1.9938308 0.54709786
-0.44137704 2.0034847 0.54638058
-0.46402419 2.0118001 0.54604048
-0.48682845 2.0207121 0.54667175
-0.51060015 2.0313683 0.54621983
-0.53485739 2.0399468 0.54605246
-0.55841398 2.0482883 0.54635197
-0.58387554 2.0589139 0.54834604
-0.60068768 2.0645041 0.55178368
-0.14973739 1.8603456 0.55071837
-0.16657791 1.8682215 0.54814398
-0.19060606 1.8781352 0.5461114
-0.21406174 1.8868529 0.54549176
-0.2393571 1.8950635 0.54626012
-0.26162121 1.9047923 0.54676121
-0.28485602 1.9142827 0.54530549
-0.30836931 1.923576 0.54585129
-0.33173212 1.9318109 0.54683083
-0.35600248 1.9414357 0.54667038
-0.37982661 1.9522853 0.54685283
-0.4016934 1.9596736 0.54549491
-0.42655182 1.9684569 0.54685593
-0.44837064 1.9787101 0.54628533
-0.47235405 1.987707 0.54607302
-0.49636728 1.9962903 0.54621154
-0.51915729 2.0057955 0.54539567
-0.54314744 2.0147519 0.54671091
-0.56722438 2.0241108 0.54606479
-0.59128499 2.0336828 0.54788458
-0.60909492 2.0401812 0.55139107
-0.15709248 1.8353593 0.54970956
-0.1740727 1.8425628 0.54719168
-0.20026514 1.8530294 0.54685104
-0.22316484 1.8620017 0.5458433
-0.24704625 1.8697829 0.5466997
-0.27052903 1.8798125 0.54659516
-0.29402134 1.8899859 0.54637396
-0.31747547 1.8988308 0.54607368
-0.3396256 1.907186 0.54690546
-0.36415184 1.9168452 0.54643184
-0.38820148 1.927238 0.54710591
-0.40991354 1.9346296 0.54547149
-0.43446892 1.943781 0.54611868
-0.45743364 1.9522756 0.54621142
-0.48196724 1.9627206 0.54646909
-0.50571495 1.9707894 0.54726732
-0.52838027 1.9805309 0.54659194
-0.55140209 1.9894862 0.54656667
-0.57543159 1.9982632 0.54661977
-0.60104942 2.0093117 0.54749203
-0.6175096 2.0145838 0.55154604
-0.16602576 1.8120351 0.54995948
-0.1826161 1.8168402 0.54804361
-0.20867699 1.827461 0.54699093
-0.23108459 1.83675 0.54635596
-0.25559819 1.8459655 0.54588044
-0.27891904 1.8549862 0.54692322
-0.30192405 1.8647588 0.54554152
-0.32575837 1.8728578 0.54664862
-0.34873194 1.8821588 0.54636145
-0.37289605 1.8918819 0.54615533
-0.39723358 1.9018792 0.54696888
-0.41934088 1.9088646 0.54638982
-0.44336727 1.9185506 0.54724056
-0.46563107 1.9268186 0.54652303
-0.49034899 1.9377308 0.54562324
-0.5141505 1.9460833 0.54617518
-0.53702128 1.9558789 0.5460422
-0.56023598 1.9655004 0.54650283
-0.58398199 1.9736793 0.54603285
-0.60974443 1.983597 0.54853147
-0.62576568 1.9897246 0.55166715
-0.17494415 1.7851343 0.5497632
-0.19149996 1.7918862 0.54749024
-0.21768905 1.8026382 0.54576451
-0.2400496 1.8115565 0.54689956
-0.2640357 1.8200651 0.54656053
-0.28779542 1.8289583 0.54636854
-0.31061554 1.839214 0.54566133
-0.33463067 1.8476808 0.54572701
-0.35687184 1.8572135 0.54653364
-0.38157636 1.8667974 0.545982
-0.40645891 1.8747784 0.54623073
-0.42799744 1.8835807 0.5453406
-0.45178005 1.893609 0.54666466
-0.47427225 1.9025701 0.54651505
-0.49815607 1.9129549 0.54632622
-0.52171588 1.9205034 0.54651362
-0.54559886 1.9299017 0.54608953
-0.56889713 1.9394217 0.54660499
-0.59142512 1.9485997 0.54598403
-0.61844015 1.9585373 0.54861909
-0.63425463 1.9642695 0.55144137
-0.16634905 1.7474437 0.55130583
-0.17995718 1.7566665 0.54977596
-0.20181188 1.7684193 0.54776412
-0.22620352 1.7769955 0.54639286
-0.24885747 1.7857763 0.54717833
-0.27287245 1.7948322 0.54649943
-0.29617018 1.8046837 0.54754424
-0.31908807 1.8141708 0.54641557
-0.34356913 1.8226526 0.54659557
-0.36570221 1.831432 0.54674882
-0.38979256 1.8418058 0.54608881
-0.41393077 1.8501549 0.54662549
-0.43635824 1.8589684 0.54596537
-0.46112892 1.868802 0.54723001
-0.48342186 1.8760804 0.54687214
-0.50743115 1.8869288 0.54663855
-0.53034538 1.8964773 0.54704213
-0.55461025 1.9047469 0.54661572
-0.5781405 1.9142511 0.54592764
-0.60071683 1.9231737 0.54616922
-0.62429798 1.9346108 0.54737991
-0.64789706 1.9400215 0.54980963
-0.66552234 1.9362054 0.54678893
-0.1727508 1.7311156 0.54810029
-0.18807344 1.7312744 0.54974979
-0.21216354 1.7368183 0.5508827
-0.23221681 1.754465 0.5504024
-0.25661394 1.7645959 0.55078554
-0.27997467 1.7742771 0.55032951
-0.30312359 1.7828479 0.55046099
-0.32595271 1.7916818 0.55026025
-0.35020053 1.8009735 0.55017424
-0.37299454 1.8099434 0.55085719
-0.39749423 1.8199298 0.55079025
-0.42119989 1.8292744 0.55091
-0.44357198 1.838447 0.55109823
-0.46772134 1.8467913 0.55142885
-0.49112183 1.8557284 0.55071467
-0.51550996 1.865364 0.55068135
-0.538239 1.8744715 0.55161047
-0.56122321 1.8839025 0.55082619
-0.58544564 1.892814 0.55093628
-0.60856235 1.9014181 0.55084097
-0.63492495 1.9025749 0.55054194
-0.6573565 1.9147482 0.55022907
-0.66746545 1.9294925 0.54626459
-0.19793355 1.7218096 0.54853737
-0.21189672 1.7277541 0.5499202
-0.64244658 1.894709 0.55112624
-0.65411747 1.9000901 0.55309737
-0.0060853958 2.2199864 0.58003122
-0.018744916 2.2328839 0.57685977
-0.039901316 2.2411897 0.57652944
-0.065211177 2.2433381 0.57701635
-0.090445846 2.2523842 0.57734942
-0.11302757 2.2613516 0.57637161
-0.13839436 2.2712328 0.57714784
-0.16112554 2.2802129 0.5754748
-0.18264203 2.2884953 0.57755685
-0.20741576 2.2981107 0.57695967
-0.23288897 2.3080752 0.57557315
-0.25459281 2.3163326 0.57754803
-0.27617764 2.3249419 0.5755735
-0.30167359 2.3348389 0.57695997
-0.32642502 2.3445182 0.57755697
-0.34849906 2.3531935 0.57614058
-0.37162742 2.3621116 0.5763728
-0.39655745 2.3718474 0.57666004
-0.41873342 2.3802969 0.57734925
-0.44346356 2.3909733 0.57625526
-0.46431965 2.4073436 0.57772094
-0.48576802 2.4144523 0.57606208
-0.50136173 2.4128652 0.58349133
-0.0095154345 2.2098145 0.57628888
-0.022386372 2.2097216 0.57735592
-0.049545944 2.2303152 0.57479006
-0.067829669 2.2398446 0.57736951
-0.091764092 2.249068 0.57708228
-0.11522132 2.2582223 0.57774955
-0.13836718 2.2672441 0.57651061
-0.16074342 2.2757387 0.57831758
-0.18527377 2.2853501 0.57712805
-0.20941578 2.2948697 0.57780683
-0.23296158 2.3040831 0.57721943
-0.25606805 2.3129249 0.57638395
-0.27899957 2.3219593 0.57709485
-0.30251589 2.3311946 0.57789832
-0.3265878 2.3403926 0.57701236
-0.35111079 2.3499258 0.57818705
-0.37389094 2.3590024 0.5765081
-0.39682394 2.3679354 0.5777337
-0.41984156 2.3769226 0.57721871
-0.44382387 2.3862991 0.57764959
-0.46313769 2.3919268 0.5797134
-0.49733457 2.3952999 0.57756823
-0.50619984 2.4032822 0.57698959
-0.037599415 2.1889992 0.57606697
-0.048403114 2.1914971 0.5801881
-0.48732302 2.3645389 0.57523024
-0.49765188 2.3685391 0.57705504
-0.046616882 2.1627326 0.57657439
-0.056705236 2.1669552 0.57869118
-0.49646378 2.3369372 0.5787313
-0.50662816 2.3414137 0.57694834
-0.055809855 2.1364708 0.57689542
-0.065015107 2.1417482 0.58106005
-0.50463796 2.3123887 0.5772233
-0.51544058 2.3155003 0.57638729
-0.064006239 2.112304 0.57590824
-0.073938489 2.1146064 0.57800967
-0.51366138 2.2878706 0.57761103
-0.52380049 2.2909701 0.57630211
-0.071541309 2.0882275 0.57576698
-0.082725763 2.0907333 0.57631105
-0.52263194 2.2615707 0.57662147
-0.53201938 2.267287 0.57656962
-0.081161261 2.0625155 0.57561862
-0.090082318 2.0665505 0.57719564
-0.53019905 2.2381847 0.57800949
-0.5401907 2.2422357 0.57624853
-0.089380711 2.0358667 0.57631493
-0.099324226 2.0412502 0.57632434
-0.53974569 2.2118678 0.57838339
-0.54939902 2.2165537 0.57645768
-0.098127723 2.0105836 0.57715398
-0.10747135 2.0161223 0.57685459
-0.54793096 2.1867061 0.57863289
-0.55863291 2.1906002 0.57645732
-0.10575932 1.9867928 0.57688838
-0.11646384 1.9895858 0.57619065
-0.55569828 2.1634128 0.57788163
-0.56682718 2.1650693 0.57678336
-0.11483249 1.9619846 0.57699949
-0.12522459 1.964844 0.57838267
-0.56476921 2.1375439 0.57708973
-0.57441449 2.141443 0.5764187
-0.12352377 1.935742 0.57675755
-0.13328972 1.9401813 0.57822484
-0.57373142 2.1098866 0.57629412
-0.5837422 2.1149502 0.57659978
-0.13204142 1.9118416 0.57711428
-0.14203283 1.9146366 0.58013791
-0.58199549 2.0865054 0.57663536
-0.59159517 2.0902538 0.57707161
-0.14062074 1.8857466 0.57683414
-0.15040907 1.8899835 0.57775992
-0.59002262 2.0607564 0.57656789
-0.6002121 2.0640771 0.57763392
-0.15042165 1.8589031 0.57734704
-0.15882224 1.8665062 0.57932401
-0.59900951 2.0356066 0.57768309
-0.60915655 2.0384872 0.57754737
-0.15785068 1.8352616 0.57689351
-0.16768721 1.8396901 0.57737482
-0.60741168 2.0104086 0.57665932
-0.61724114 2.0155642 0.57724124
-0.16606477 1.8119236 0.57701701
-0.17667761 1.8120172 0.57695001
-0.61606574 1.9851769 0.57779348
-0.62526548 1.9906147 0.57690901
-0.17502137 1.7858516 0.57637113
-0.18492842 1.7884173 0.57661325
-0.62511134 1.9600043 0.57849795
-0.6341989 1.9644216 0.57721651
-0.16698217 1.7456577 0.57827485
-0.17955935 1.7571861 0.57697147
-0.19072004 1.7679299 0.5766511
-0.34435934 1.8110567 0.59079903
-0.39879635 1.8343561 0.59057307
-0.45491639 1.8578343 0.59050417
-0.51312834 1.878044 0.59096825
-0.57553309 1.9037274 0.59094197
-0.59676409 1.9105034 0.59075004
-0.6312176 1.9418796 0.57788682
-0.64764637 1.9385417 0.57749844
-0.66403347 1.9411172 0.5731951
-0.17126916 1.7322454 0.58325654
-0.18870403 1.7312232 0.57615733
-0.21176797 1.7368321 0.57686853
-0.23331568 1.7537037 0.577645
-0.25668091 1.7635258 0.57667655
-0.27979696 1.7725384 0.57739657
-0.30379444 1.7819499 0.57641339
-0.32664335 1.7906531 0.57806641
-0.35106641 1.8002713 0.57647735
-0.37432081 1.8094856 0.57772291
-0.3968091 1.8179784 0.57666504
-0.42083487 1.8273699 0.57789487
-0.44476539 1.8366793 0.57678819
-0.46791947 1.8460972 0.57797176
-0.49159095 1.8551263 0.57657158
-0.51578265 1.8644437 0.57807136
-0.53838998 1.8733187 0.57673889
-0.56187111 1.8824285 0.57739449
-0.58511245 1.8915222 0.57696426
-0.60924828 1.9002595 0.57681012
-0.63615113 1.9020362 0.57759094
-0.6565544 1.9146208 0.5766378
-0.66770279 1.9297097 0.58095217
-0.19719265 1.7212744 0.57950979
-0.2108136 1.7268536 0.57504445
-0.64454055 1.895077 0.57738924
-0.65442097 1.8998554 0.57815897
-0.006795764 2.221118 0.60428053
-0.018254906 2.2329931 0.60367024
-0.040034533 2.2407775 0.60368454
-0.062830329 2.2436488 0.60286474
-0.089714348 2.2520928 0.60260612
-0.11152571 2.2607129 0.6008507
-0.13531107 2.2700734 0.60128999
-0.1594376 2.2794552 0.59984636
-0.18340033 2.2888198 0.60107756
-0.20897359 2.2987902 0.60139465
-0.23407003 2.308532 0.59978634
-0.25381905 2.3161607 0.6017248
-0.27585256 2.3247468 0.59997892
-0.30022472 2.3343172 0.60244477
-0.32466778 2.3438118 0.60143232
-0.34877408 2.3532145 0.60026163
-0.3722333 2.3624427 0.60013795
-0.39626652 2.3717606 0.6011849
-0.41996276 2.3808787 0.60142612
-0.44685265 2.3932326 0.60175782
-0.46411076 2.4068847 0.60393584
-0.48560226 2.4144578 0.60291195
-0.50326222 2.4130068 0.60572046
-0.010261387 2.2075872 0.60677177
-0.022050142 2.2101877 0.60519117
-0.051124334 2.2240467 0.60756844
-0.070349097 2.232981 0.6053949
-0.094671965 2.2410855 0.60556382
-0.11715493 2.2507083 0.60477579
-0.14153785 2.2601638 0.60493326
-0.16498587 2.2687628 0.60480279
-0.18767175 2.277776 0.60465968
-0.21135895 2.2870483 0.60557085
-0.23440355 2.2968953 0.60430378
-0.25858483 2.3056774 0.6057533
-0.281232 2.3147659 0.60436302
-0.30470794 2.3244832 0.60494798
-0.32946363 2.3327568 0.60519493
-0.35225144 2.3418567 0.60557443
-0.37514251 2.3517561 0.60470819
-0.39902282 2.3606815 0.60507649
-0.42225677 2.3703053 0.60572308
-0.44652629 2.3795431 0.60494226
-0.46376264 2.388293 0.60640144
-0.49585673 2.3943 0.60506696
-0.50641239 2.402597 0.60573035
-0.035717607 2.1914165 0.60212147
-0.052138239 2.1934814 0.6050356
-0.48280251 2.361392 0.60729975
-0.49703085 2.3680806 0.60233253
-0.0456177 2.1625266 0.6002003
-0.060787469 2.1682348 0.60541886
-0.49117503 2.3361669 0.60692966
-0.50612408 2.3417444 0.60228008
-0.054021835 2.13764 0.5988515
-0.069086581 2.1432536 0.60512841
-0.50019002 2.3107347 0.60676706
-0.51521492 2.3149917 0.6018315
-0.063211918 2.112524 0.59982657
-0.078135371 2.1185088 0.60492265
-0.50856876 2.2854733 0.60599858
-0.52379245 2.2911286 0.60165155
-0.072136581 2.0875931 0.59933406
-0.086109281 2.0933604 0.60417593
-0.51726609 2.2606349 0.60639435
-0.53171086 2.2686002 0.60166579
-0.080554545 2.062294 0.59894657
-0.095028818 2.0686126 0.60470104
-0.52641839 2.2370551 0.60636276
-0.54021013 2.241945 0.60170138
-0.089837044 2.0373781 0.59996486
-0.1036644 2.0424881 0.60465562
-0.53411424 2.2105584 0.60646558
-0.54923636 2.2155509 0.60236269
-0.098152667 2.011281 0.60003412
-0.11208132 2.0179396 0.6051687
-0.5435462 2.1852608 0.60691828
-0.55796254 2.1899824 0.60220224
-0.10634285 1.9877975 0.60074019
-0.12058234 1.9937335 0.6049186
-0.55107105 2.160248 0.60706419
-0.56515115 2.1667781 0.60246086
-0.11442414 1.9623265 0.60080218
-0.12982985 1.9684279 0.60491288
-0.55950332 2.1345928 0.6068064
-0.57369661 2.1418469 0.60125792
-0.12259308 1.935684 0.59979999
-0.13795072 1.9412696 0.6048342
-0.56731486 2.1091895 0.60718566
-0.5826906 2.1158597 0.60163969
-0.13073835 1.9109321 0.60014141
-0.14607188 1.916398 0.6045329
-0.57655817 2.0836787 0.60744894
-0.59135532 2.0900307 0.60079134
-0.14031011 1.8864557 0.60001117
-0.15504688 1.8912187 0.60524559
-0.5845179 2.0583646 0.60842305
-0.59992945 2.0645065 0.60177946
-0.14860865 1.8617361 0.60062593
-0.16369069 1.8663077 0.60468549
-0.59508282 2.0332315 0.60648686
-0.60860187 2.0378299 0.60179216
-0.15617269 1.8359855 0.60024768
-0.1717848 1.8414397 0.60424346
-0.60266185 2.0100694 0.60672003
-0.61762846 2.0147605 0.60222238
-0.16540793 1.8101882 0.60103601
-0.17957315 1.8163083 0.60331589
-0.6121887 1.9839593 0.60633355
-0.62463295 1.9905742 0.60247403
-0.17331389 1.7849417 0.59959388
-0.18830678 1.7908347 0.60329282
-0.61990249 1.9595599 0.60686064
